-0.00168228 -11.5976 -11.5976 -11.5976 -11.5976 -0.145884 -11.5976 -11.5976 -11.5976 -11.5976 -11.5976 -11.5976 -11.5976 -0.00211906 0.00144005 0.00347328 -11.5976 -0.00189972 -0.00848198 -11.5976 -0.0101814 -0.000576019 0.00190544 -11.5976 -0.00290489 -0.00389099 -11.5976 0.0073185 0.00141716 -0.000501633 -11.5976 -0.00845146 0.00607491 -0.00300217 -11.5976 -0.00533867 -0.00342178 -0.00656891 -11.5976 -0.00358009 0.000505447 0.00531578 -11.5976 0.00143242 -0.00349617 -0.00398254 0.00165558 -11.5976 -0.00654602 0.00201225 0.00437737 0.00133705 -11.5976 -0.00615311 -0.00533104 -0.00150871 -11.5976 -11.5976 -0.00208664 -11.5976 -11.5976 0.00385284 -11.5976 -0.00276756 -0.00275803 0.00274277 -0.00214195 -0.00306892 -0.0045681 -11.5976 -0.00274849 -0.000247955 -0.00999641 -0.000541687 0.00477791 -11.5976 0.00309563 -11.5976 -0.00512123 -0.0111179 -0.00151443 -0.00427818 -0.00450516 -0.00330734 -0.00700569 -0.0148659 -0.00276184 0.00586128 -11.5976 -0.0108681 0.00466919 -0.0120964 -0.00966454 -0.0082798 -0.00807381 -0.00330353 0.000423431 -0.0090313 0.00119591 0.00367165 0.00216866 0.00247478 -0.000535965 -0.00425434 -0.000133514 -0.00264168 -0.00273514 -0.00214577 0.00905228 -0.00114822 -0.00274086 -0.0080452 -0.00344849 -0.00799751 -0.00364304 0.00576401 -0.0132618 -0.00781822 -0.000879288 -0.014452 -0.000436783 -0.00252342 0.00445175 0.00103378 0.000961304 -0.00606537 -0.00636864 -0.00222778 -0.00723267 -0.00333405 -0.00416946 -0.00978661 -0.0138206 0.00354767 -0.00857925 0.00598526 -0.01161 -0.00521278 0.000656128 -0.00907612 0.0033102 0.00412273 -0.00662136 0.000244141 -0.000511169 -0.00836086 -0.00302315 -0.00582314 0.00291824 0.00161552 0.00286293 0.000556946 -0.000259399 0.0029459 0.00486565 0.00469398 -0.000408173 0.00577545 0.00329399 -0.00164986 -0.00557709 0.00160503 -0.00760078 0.00610161 0.010498 0.00470543 0.000360489 -0.00786781 0.00489044 -0.000984192 0.000989914 0.00271225 0.00415421 0.00357914 -0.00159216 0.0116224 0.00253296 0.00047493 0.00962448 -0.00161648 0.00374222 0.00267029 0.0118866 -0.00416756 0.00176048 0.00614738 0.00724602 0.00107384 -0.0026741 -0.00375557 -0.000300407 0.00857353 -0.0112839 0.0134258 -0.00599098 0.0120783 0.00726891 -0.135754 0.0122795 -0.0019989 0.00549603 0.00658989 0.011631 0.00601196 0.000597 0.00949383 -0.00635147 0.00504494 0.000434875 0.00196409 0.0104427 -0.00445175 0.00414944 -0.00714493 0.000448227 0.00597763 -0.0062809 -0.00918007 -0.00794983 0.00438118 0.0017395 0.00984764 0.00803947 0.00602722 0.00159073 0.000797272 -0.0102119 0.00127125 0.0121002 0.00235748 0.00513458 0.00547028 0.00256062 0.00397682 -0.00576591 0.00369453 0.0153694 0.00228786 0.00564766 0.00307274 0.00398827 -0.000495911 -0.00535011 0.0206919 -0.00179863 0.00431633 0.00574207 -9.02812e-005 0.00309563 0.00710678 -0.000528336 0.0127811 0.000919342 0.000886917 -0.00544357 -0.00282669 0.00822353 -2.03451e-005 0.00828171 0.00919533 -0.00870228 0.00257111 -0.00393295 -0.0065403 0.00649643 -0.00405502 -0.00091362 -0.0122452 -0.00568771 0.00313568 0.00113678 -0.0051918
-11.5976 -11.5976 0.00780106 -11.5976 -0.0771179 -0.00402641 0.000171661 -11.5976 -8.58307e-005 -0.00479698 -11.5976 -0.00263023 -0.000364304 -11.5976 -0.00787163 -0.000387192 -11.5976 -0.0116901 -0.00453758 0.00733185 -11.5976 -0.00224495 -0.00161934 -11.5976 -0.00533867 0.00131035 -0.00617409 -11.5976 -0.000850677 -0.00385857 -0.00275612 -11.5976 -0.000387192 0.00362587 -11.5976 -0.00945282 0.0024395 0.00131607 -0.00223923 -11.5976 0.000923157 0.000276566 0.000148773 -11.5976 -0.00493431 -0.00417519 5.91278e-005 0.00761223 -11.5976 -0.00782585 -0.00343895 0.000995636 0.00130463 -11.5976 -0.00425529 0.00486183 -0.00182533 -11.5976 -11.5976 0.00564384 0.00238037 -0.00161934 0.00704193 0.00393867 -11.5976 -0.000375748 -0.00214767 -0.00198746 -0.00627327 0.00613785 -11.5976 -0.00506401 0.00669289 0.00818634 0.00324059 -0.0138283 -0.0425282 -0.00354385 -0.00222778 -11.5976 -0.00506592 -0.00471687 -0.0208321 -0.00374603 0.000967026 -0.00439072 -0.00614548 -0.0208893 0.0038147 -0.0133457 0.000572205 -11.5976 -0.00976753 0.000789642 -0.00818062 -0.00231743 -0.00388718 -0.00351334 0.00125694 0.0018692 -0.00382996 -0.00480843 -0.00561142 -0.00056076 0.00664902 0.00122166 -0.000762939 -0.00858498 -0.000343323 -0.000110626 -0.00404358 0.000154495 -0.00475121 -0.000890732 0.000190735 -0.000507355 0.00210381 -0.00272369 -0.00310326 0.000141144 0.00356674 -0.007864 -0.00181961 0.0050354 -5.72205e-006 0.00946808 0.000911713 0.00303078 -0.00415421 -0.00194931 0.00279427 0.00592613 0.00103569 -0.000854492 -0.00440216 0.00316238 -0.0114803 0.00536156 0.00172043 -0.00247955 -0.00712776 0.0138321 -0.00749016 0.00526237 0.000209173 -0.00065136 -0.00793457 -0.00350189 -0.000831604 5.91278e-005 0.00333023 -0.000843048 -0.00368214 -0.0119019 -0.000738144 0.00641632 0.00333786 -0.00852394 -0.0089817 0.00302696 -0.00184059 -0.000234604 0.000965118 -0.0131779 -0.00800896 0.00222588 -0.00616455 0.000617981 0.00334358 0.0033741 -0.0011673 -0.00348854 -0.00516319 -0.00743294 -0.000925064 -0.00251198 0.00248146 0.00299072 0.0116685 0.00641187 -0.00417805 -0.000818253 0.00388336 0.00627136 -0.0018549 -0.00240326 -0.00408936 0.0102615 0.000602722 0.0115089 0.00664043 -0.00292587 -0.00411987 -0.00102615 0.00396919 -0.00237179 -0.00329781 -0.131902 0.0174217 0.0040741 0.00154972 -0.000692368 -0.000795364 0.00261497 -0.00114727 0.0112133 0.0104599 0.00755692 0.00457382 -0.00174046 -0.00173759 0.00730515 -0.0120754 0.00392532 -0.00122786 0.00771618 0.00230217 0.00312901 -0.00863457 0.00521088 -0.00553513 -0.00317764 -0.000169754 0.0030241 6.48499e-005 -0.00554848 0.00629044 0.00183392 0.0139771 0.0137138 0.00312614 0.0071888 0.00334549 0.000875473 0.00356674 0.00432014 0.016325 -0.00111389 0.0132847 -0.0104389 0.0178204 0.00478935 0.00234604 0.0031395 0.00907707 -0.00150871 -0.00956345 -0.0049324 0.00977135 0.00282669 -0.00278664 0.00570297 0.00784175 0.00606728 -0.00235081 0.00290108 -0.00189908 -0.00053072 0.00563049 -0.0048027 0.00975704 0.0051918 0.0024147 0.000743866 0.000562668 0.0151825 -0.00265026 -0.00917625 0.00576782 -0.00575256 0.00234413 -0.00771713
-0.0135555 -0.00701523 -11.5976 -11.5976 -0.00668144 -11.5976 -0.00232506 -11.5976 -0.00662613 -0.003088 -0.00588799 -11.5976 -0.00176048 -0.00474548 -11.5976 0.000883102 0.00626183 -11.5976 -0.000768661 0.00533867 -0.00298882 -11.5976 -0.00579453 -0.0059166 -11.5976 -0.000516891 0.000883102 -0.00360107 -11.5976 -0.00317955 -0.00223351 0.000461578 -11.5976 0.00337982 0.00012207 -11.5976 -0.0119762 0.00466919 -0.00122833 -0.005373 -11.5976 -0.00165749 8.2016e-005 0.000768661 0.00589371 -11.5976 -0.00623131 0.00568962 -0.00398064 -11.5976 -0.00269699 -0.00262451 -11.5976 -11.5976 -11.5976 -11.5976 -11.5976 -0.00504875 0.00143051 -11.5976 0.00144005 0.00382805 0.0017395 0.00720406 -5.72205e-005 -11.5976 0.00471497 0.00520325 0.00261116 0.00209236 0.00523758 0.00079155 -11.5976 0.00555992 0.00372696 0.0011673 -11.5976 -0.0807915 0.00263214 -0.00659561 -0.00313187 0.00553322 -11.5976 0.00127602 -0.00351143 -0.00777626 -0.0134106 -0.00276756 -0.00999451 -0.0174942 -0.00669098 0.000717163 -0.0125351 -0.00157356 -0.00209618 -11.5976 -0.00802994 -0.00438309 -0.00660706 0.00411415 0.000595093 0.00399017 0.00723267 0.00807762 0.000137329 0.00928307 0.000715256 -0.00523949 -0.00634003 0.00105286 0.0033474 0.00257301 -0.00217247 0.00868797 -0.00984192 0.0101624 -0.00777245 -0.00527382 0.0078907 0.00802422 -0.00209808 0.00204277 -0.00732422 0.00483131 -0.0012989 -0.00411987 0.000711441 -0.0116482 -0.00278759 -0.00407982 0.00150681 0.00883865 0.00395775 -0.00181961 -0.0024147 0.00187874 0.00297356 -0.00494576 0.00698853 -0.00765228 -0.00125313 0.00639629 0.00292397 0.00972557 0.00240326 0.00196075 0.00300789 0.00263214 0.00475788 0.00168037 0.00395203 -0.00380802 -0.00204754 -0.0024128 -0.000272751 0.00874519 -0.00335693 -0.00712776 -0.00665474 -0.00459671 -0.00875473 0.00707436 0.00455284 0.00145721 0.00258064 -0.00616646 0.00342655 -0.00117683 -0.00411606 0.0088253 -0.00769424 0.00584793 0.00261021 -0.00812149 -0.00170326 0.00573349 0.00963783 -0.00276375 -0.00230885 0.00349808 0.00797653 0.00690269 0.00523376 0.00847244 -0.00284004 -0.000590324 0.00339317 0.0100565 -0.000309944 -0.00465838 0.00175095 0.00658798 0.00819016 0.00941849 -0.00686741 0.00494957 0.00123787 -0.130846 0.0101376 0.00552273 0.0064621 0.0105247 0.00637627 0.00978661 -0.00361156 -0.0067997 -0.00553131 0.0116177 -0.00736237 -0.00124741 -0.00403786 -0.000745773 -0.00193977 -0.0010767 -0.00497818 0.000909805 0.00792694 0.00114059 -0.000679016 0.00865364 0.00302601 0.00258827 -0.000777245 0.0080293 0.000470161 0.0123253 -0.00909424 0.00472069 0.00808144 0.000204086 0.00204849 0.0109291 0.00514412 0.00259399 0.00808144 0.00712967 0.00653267 0.00323677 0.00613022 0.0153465 0.0181217 -0.0032959 0.00738621 0.00793839 0.00658607 0.00718117 0.00565147 0.00865841 0.0155087 0.00296974 0.0113373 0.00608063 0.00666142 0.00193024 0.00491714 0.00644302 0.00300217 0.00423279 0.000945091 0.00255013 -0.00142797 0.00361729 0.00223923 -0.00465107 -0.00784111 0.00831604 -0.00218964 0.00275612 1.90735e-006 0.00230026 -0.00561523 -0.00339127
-0.00608253 -0.0107632 -11.5976 0.00363922 -11.5976 -0.102722 -0.00154877 -0.00895309 -11.5976 0.00144577 -0.00260353 -11.5976 0.0454845 -11.5976 -11.5976 -11.5976 -11.5976 -11.5976 -11.5976 -11.5976 -11.5976 -11.5976 -11.5976 -11.5976 -11.5976 -11.5976 -11.5976 0.00176811 -0.00217438 -11.5976 -0.00902367 0.000217438 0.0407047 -11.5976 -11.5976 -11.5976 -11.5976 -11.5976 -11.5976 -11.5976 -11.5976 -11.5976 -11.5976 -11.5976 -11.5976 -11.5976 -11.5976 -0.001688 -11.5976 -11.5976 -11.5976 -11.5976 0.00609016 -0.00367355 -11.5976 -0.0062294 -0.00762558 -0.000259399 -0.00109291 0.00530434 -11.5976 -0.00273323 0.00140762 0.000484467 0.00413132 0.00749779 -11.5976 -0.00151443 -0.00580406 0.00410652 0.00288963 -0.00466919 0.00571823 0.00606728 -11.5976 -0.00817299 -0.128893 0.00567818 -0.0074749 0.000276566 -0.00232124 -0.00691223 -0.0130215 -11.5976 -0.00285721 -0.0136681 -0.0118275 -0.00118256 0.00125694 -0.00608444 -0.000736237 0.00464821 -0.00204659 0.0296116 -0.00111008 0.00556946 0.00485229 0.00683594 -11.5976 -0.00233269 -11.5976 0.00154495 -0.00936699 0.00502777 0.00203514 -11.5976 0.000946045 -0.00266266 -0.00485229 0.00363159 0.00313759 -0.00528336 0.00242805 -0.00288391 -0.00289345 0.000614166 0.00245857 -0.00346184 0.00643158 0.0045414 0.00610924 -0.0053196 -0.0103149 -0.00564194 0.00363731 0.00129128 -0.00125313 0.00697517 0.00388145 -0.00520706 -0.00475311 -0.00349426 -0.000282288 0.00967407 -0.0116329 -0.0130806 0.0110283 0.0073204 0.0152111 0.0128689 -0.00378609 -0.00536346 -0.0041008 0.00160789 0.00346947 -0.0260601 0.00533104 0.00735092 -0.00911713 0.00243187 0.00292492 0.00360775 -0.00580597 0.00604725 0.00593758 0.00811577 0.0168514 0.00515175 0.00455379 0.00452423 -0.000743866 0.000379562 0.000814438 -0.00725937 -0.00317955 -0.00220108 -0.00037384 0.00224113 -0.00396729 0.00136757 -0.00256729 -0.00456429 0.00603771 -0.00764656 -0.00138855 0.00309372 0.0121365 -0.00337982 0.0023613 0.0108128 -0.00166321 -0.00584984 -0.000196457 0.00187778 -0.00357437 -0.000797272 0.00496864 -0.000272751 0.00282478 -0.000825882 -0.00110435 -0.000622749 -0.00336933 0.00289917 -0.00210762 0.0121136 -0.00248528 -0.135342 0.000663757 0.00141621 0.00367165 0.00571251 0.00484467 -0.000778198 0.00208282 0.0072155 0.00148201 0.0110149 0.0131779 0.00289059 2.09808e-005 -0.00337029 -0.000518799 0.00771904 0.0057621 -0.00171471 0.000324249 0.00410843 0.00706196 0.00634193 -0.0110893 -0.000957489 0.001894 0.00484975 0.0123787 0.00675964 0.0130043 0.00470114 0.0023489 0.00487518 0.00858498 0.00876045 0.00639629 0.00431061 -0.000768661 0.00123024 0.015707 -0.00118351 0.0134392 0.00276756 0.00647354 0.00571823 0.00420666 0.00670242 0.0174656 -0.00260353 0.0135746 0.00367546 0.00928497 -0.00138855 -0.00358963 0.00233459 0.0165119 0.00859451 0.00692368 0.0149727 -0.000781059 0.00151062 0.00696087 0.0192223 0.00882912 0.00560252 0.00320816 0.00191307 -0.00423431 0.0111485 0.00290108 0.0025568 0.00136375 -0.0103168 0.00397682 0.0106926
-11.5976 -0.0089016 -0.00446892 -11.5976 -11.5976 -0.0641365 -11.5976 -0.00147247 -0.0131969 -11.5976 -0.00460625 -0.00810432 0.0657539 0.198566 0.226082 0.216877 -11.5976 0.219231 0.221209 -11.5976 0.22011 0.212807 0.225079 -11.5976 0.216183 -11.5976 -11.5976 -0.0064373 -0.00678062 0.000707626 -11.5976 0.000289917 0.102149 0.22933 0.247841 -11.5976 0.241953 0.25058 -11.5976 0.2236 0.218479 0.255003 0.275242 0.260775 -11.5976 -11.5976 -11.5976 -11.5976 0.00423813 -0.00336456 -11.5976 0.00543594 0.0702753 0.228819 -11.5976 -11.5976 -11.5976 -11.5976 -11.5976 0.214241 0.222584 -11.5976 -11.5976 -11.5976 -11.5976 -11.5976 -11.5976 0.000902176 -11.5976 -0.0102024 0.00571442 -0.00309372 0.011816 -0.0102596 -0.00473404 -11.5976 -0.130102 -0.00114822 -0.00900459 0.00295067 -0.00494003 -0.00314331 -0.00675201 -0.0115395 0.0570755 -11.5976 -11.5976 -11.5976 -11.5976 -11.5976 -11.5976 -11.5976 -11.5976 -11.5976 -11.5976 -11.5976 -11.5976 -11.5976 -11.5976 0.000722885 -0.00320435 0.00581932 -0.00299263 0.0117645 0.110224 0.20993 0.220961 0.225611 0.225525 0.211327 0.225031 0.215923 0.225534 0.21526 0.222813 0.227455 0.223724 0.222412 0.209612 -11.5976 0.000442505 -0.00382233 -0.0014286 0.000152588 -0.00561523 0.00435257 0.000244141 -0.00568199 0.00226212 -0.0136585 2.09808e-005 -0.00183105 -0.000160217 0.0052681 -0.00155449 -0.00502586 0.0364456 -11.5976 -11.5976 -11.5976 -11.5976 -11.5976 -11.5976 -11.5976 -11.5976 -11.5976 -11.5976 -11.5976 -11.5976 -11.5976 -11.5976 -0.0080986 0.00310516 -0.000743866 0.00311184 -0.00660515 -0.00182915 -0.000452042 -0.000583649 -0.00293541 0.00765228 -0.00942802 -0.00183487 0.00300026 0.00133896 0.00713158 0.0111427 0.0145359 -0.00163078 0.00337982 0.00676918 -0.00322723 -0.00719261 -0.00126648 -0.00200272 0.000612259 0.00156212 0.0235291 -11.5976 -11.5976 -11.5976 -11.5976 -11.5976 -11.5976 -11.5976 -11.5976 -11.5976 -11.5976 -11.5976 -11.5976 -11.5976 -11.5976 0.00138283 0.00322628 0.00108814 0.00754166 0.000330925 -0.132988 0.00176239 0.00919247 0.000883102 0.00774193 0.00374794 -0.00947571 -0.00157928 -0.00569534 -0.000701904 0.0116272 0.00315857 -0.00197411 0.00359154 0.00967598 0.00228119 0.000801086 -0.00589371 -5.72205e-006 0.00498962 0.000999451 -0.00319576 0.0100746 0.0103455 0.0071106 -0.00510216 0.0220871 0.01968 0.00519753 0.00180435 0.00123787 0.013834 0.0121851 3.8147e-005 -0.00359344 0.00616741 -0.00344849 0.0105858 0.00930786 0.0189629 -0.00211811 0.00628281 -0.00499344 0.00770569 0.0050869 -0.00193405 -0.00340843 0.00488663 0.00997162 -0.00212669 0.0161762 -0.00191689 0.004673 0.00509834 0.00620842 0.00966263 0.000190735 -0.0024147 0.0242748 0.00852299 0.0050602 0.000723839 0.00117302 0.00553131 0.00657654 -0.00250816 -0.00292969 0.0198708 0.00450325 0.00579643 0.00821924 0.00790882 -0.00322628 0.00539589 0.00558853
0.00805664 -11.5976 -0.0133877 -11.5976 -11.5976 -0.0720263 -0.00320435 -11.5976 -0.010397 0.00270844 -11.5976 -0.0109196 0.117439 0.279568 0.268948 -11.5976 0.263676 0.29105 -11.5976 0.194572 0.265209 0.288065 -11.5976 0.286041 -11.5976 -11.5976 -11.5976 -11.5976 -11.5976 -0.0107689 -11.5976 -11.5976 0.177763 0.241245 -11.5976 -11.5976 -11.5976 -11.5976 0.276644 -11.5976 0.221672 -11.5976 -11.5976 -11.5976 -11.5976 -11.5976 0.12089 -11.5976 0.00885963 0.000490189 -0.000202179 -11.5976 0.108435 0.308115 -11.5976 0.295855 0.300318 0.318239 -11.5976 -11.5976 -11.5976 0.279617 0.296801 0.278517 0.259851 -11.5976 -11.5976 -0.00549126 -0.00273132 -11.5976 -0.00160027 -0.0071373 -0.00903893 -0.00370979 0.00120544 -11.5976 0.00463295 0.0106411 -11.5976 0.00360489 -0.0117645 -0.00855255 -0.0018959 0.00172997 0.111419 0.221678 0.274565 0.252275 0.268059 0.289944 -11.5976 0.220026 0.22242 0.264875 0.282919 0.261951 0.268911 0.269205 -11.5976 0.00078392 -0.00111961 0.00167656 -0.000579834 -0.00964355 0.162713 0.258993 0.219612 -11.5976 -11.5976 -11.5976 0.237789 0.244287 0.232317 0.237844 0.242002 -11.5976 -11.5976 -11.5976 0.170948 0.000234604 0.00405693 0.00513077 -0.000144958 0.0039978 0.00413132 0.00912857 0.00813484 -0.000749588 0.00736427 -0.0116806 -0.0023632 0.0042038 -0.00581551 9.91821e-005 0.000274658 -0.00319481 0.00287819 0.21262 0.216028 0.228659 0.238642 0.235319 0.249725 0.224365 0.238853 0.249701 0.271948 0.280693 0.271469 0.272181 -11.5976 0.0234756 0.00931168 -0.00465012 -0.000804901 -0.00530052 0.00201988 0.121558 0.221537 -11.5976 -11.5976 -11.5976 -11.5976 0.228863 0.211864 0.218246 -11.5976 -11.5976 -11.5976 -11.5976 -11.5976 0.000133514 0.00882149 0.00758934 -0.00590324 0.00262642 0.0347767 0.202814 0.230356 0.221685 0.220333 0.203194 0.227583 0.219509 0.240545 0.22094 0.226804 0.218334 0.219284 0.230362 0.231117 0.19879 0.00526619 0.0068922 0.0116844 0.0153923 0.00670433 -0.120398 0.00541178 0.00478554 -0.000187874 -0.000170708 -0.00306988 -0.00213623 0.00149345 -0.0157776 -0.0051899 -0.0141602 0.0121164 -0.000106812 0.00485229 0.0474663 -11.5976 -11.5976 -11.5976 -11.5976 -11.5976 -11.5976 -11.5976 -11.5976 -11.5976 -11.5976 -11.5976 -11.5976 -11.5976 -11.5976 0.0112953 0.00388432 0.00420952 0.00596809 0.00283432 -0.00273895 0.210039 0.21685 0.218925 0.215792 0.224516 0.232798 0.231629 0.218552 0.216352 0.232372 0.233971 0.230066 0.220955 -11.5976 0.00174522 -0.000699043 0.00397873 -0.00296783 -0.000509262 -0.00203705 -11.5976 -11.5976 -11.5976 -11.5976 -11.5976 -11.5976 -11.5976 -11.5976 -11.5976 -11.5976 -11.5976 -11.5976 -11.5976 -11.5976 -0.00512695 -0.00501633 0.00122452 0.00151634 0.0120811 -0.000772476
-0.0105152 -0.00623703 -11.5976 -11.5976 -0.0468636 -11.5976 -0.00351715 -11.5976 -11.5976 -0.00211906 -11.5976 -11.5976 0.190161 0.228901 0.27252 0.283155 -11.5976 0.27702 -11.5976 0.21406 0.219561 -11.5976 -11.5976 0.275766 0.229366 -11.5976 -11.5976 -11.5976 -0.00425339 -11.5976 0.00097084 -11.5976 0.0645189 0.243462 0.296679 0.295155 0.313759 -11.5976 -11.5976 0.216906 0.294027 -11.5976 0.27424 0.286116 -11.5976 -11.5976 -11.5976 -11.5976 -0.000703812 -0.00503159 0.00393486 -0.00509071 0.221751 -11.5976 0.27915 -11.5976 0.292948 0.316481 -11.5976 0.219196 0.259333 -11.5976 0.271856 0.269613 0.269176 -11.5976 -11.5976 0.00601387 0.0022316 -0.00738907 0.00126648 -11.5976 0.0023098 -0.00605965 -0.0104733 -11.5976 -0.0483284 -0.011467 -0.000597 -11.5976 0.000234604 0.00733566 -0.011385 0.00221443 0.0919046 0.228558 0.286739 0.282038 0.272755 0.325165 0.22489 -11.5976 0.250534 -11.5976 0.264386 -11.5976 0.275036 0.275328 -11.5976 0.00363159 0.0110722 -0.00557899 0.00117683 0.000522614 0.0901222 0.223879 0.2796 0.284785 -11.5976 -11.5976 0.210926 0.18787 0.216976 -11.5976 -11.5976 -11.5976 -11.5976 0.181616 -11.5976 -0.0083847 0.00571251 -0.00146484 -0.00378609 -0.00943184 -0.00945854 -0.00539207 -0.00917625 -0.00094986 -0.012455 0.00741768 0.00273895 -0.00921822 0.00753403 -0.00414085 0.00193977 0.00617695 -0.00399017 0.199198 0.245873 0.274305 -11.5976 0.290667 0.286873 0.220133 0.228712 0.276735 0.260715 0.275812 0.272211 0.284679 -11.5976 -11.5976 0.00135803 0.000469208 -0.0148239 -0.00499535 -0.000350952 0.219456 0.264064 0.272967 0.2811 0.261546 0.25355 0.228683 0.211079 0.262182 0.269266 0.286694 0.299805 -11.5976 0.223259 0.00510216 -5.34058e-005 -0.00687027 -0.00356293 0.00107574 0.000102043 0.24789 0.319431 0.282686 0.285242 0.286366 0.282297 0.225252 0.230579 0.269822 0.293118 0.297144 0.281296 0.291603 0.220058 0.194742 0.00745392 -0.00553608 0.004076 0.0068512 0.00889015 -0.121771 0.0144625 0.00621223 0.00509834 -0.00731659 0.000352859 0.00765228 0.00576782 0.00139427 -0.00184536 0.00232792 -0.00128937 0.0026989 -0.00307655 0.00503349 0.226242 0.265726 0.267338 0.286434 0.271219 0.255409 0.232248 0.277374 0.289471 0.268667 0.253016 0.264674 0.252615 0.237362 0.00583649 0.00565815 0.0132084 -0.00102615 0.00126266 0.00889587 0.230061 0.280081 0.300482 0.275595 0.306843 0.307673 0.230833 0.263741 -11.5976 -11.5976 0.271547 0.231014 0.236002 0.21664 0.00297737 0.00550079 -0.00349426 0.0159721 0.00583076 0.00709724 0.23023 0.235477 0.233313 0.238302 0.236435 0.232956 0.237234 0.268597 0.266432 0.282627 0.268309 0.267683 0.28684 0.234609 0.00182915 0.00737 0.00670052 -0.00550842 0.0168457 0.00415802
-11.5976 -11.5976 -11.5976 -11.5976 -11.5976 -0.0868702 -11.5976 0.000667572 -11.5976 -11.5976 -11.5976 -0.00795937 0.0730247 0.240587 -11.5976 -11.5976 -11.5976 -11.5976 -11.5976 0.216263 0.219261 0.301176 -11.5976 -11.5976 -11.5976 -11.5976 -11.5976 -11.5976 -0.00591469 -0.00839233 0.00149155 -11.5976 0.0480556 0.287226 -11.5976 0.307348 0.293077 0.3088 -11.5976 -11.5976 0.280544 -11.5976 0.268227 0.276506 0.271143 -11.5976 -11.5976 -0.000444412 -11.5976 -0.00150108 0.00233459 -0.000305176 0.0354309 0.264071 0.283602 0.317978 -11.5976 0.279049 0.290173 0.223768 0.282499 0.282713 -11.5976 0.281563 0.286581 -11.5976 -11.5976 0.00600815 -0.00104904 -0.0114346 -0.00638008 0.00138092 -11.5976 0.00267029 -0.00392914 -0.00473785 -11.5976 -0.0490236 -0.00338745 0.00258446 -0.00260544 -11.5976 -0.003582 -0.00461006 0.096818 0.241339 0.283634 0.276749 0.274944 0.24905 0.291679 -11.5976 0.215456 0.283754 0.299536 0.269915 0.279549 -11.5976 -11.5976 0.00167274 -0.00754929 0.00568008 -0.00078392 -0.00689125 0.103094 0.222366 -11.5976 -11.5976 -11.5976 -11.5976 0.269667 0.213291 0.224972 -11.5976 -11.5976 -11.5976 -11.5976 -11.5976 -11.5976 -0.0030117 -0.000436783 -0.00745583 0.00797462 -0.0133991 0.0113258 -0.00296593 -0.00396156 0.00551987 -0.00379944 0.000499725 -0.00510788 0.0055027 0.00707912 0.00157928 0.00510406 0.00806427 -0.00466728 0.217189 0.285511 0.308174 -11.5976 -11.5976 0.302538 0.224916 0.240496 0.305635 0.280676 0.285091 0.290838 0.284653 0.215712 -11.5976 0.00133133 -0.0107632 0.0031147 0.00307655 0.000720978 0.218178 0.25164 0.268427 0.25556 0.28367 0.287819 -11.5976 0.200014 0.249656 0.284174 0.291494 0.271784 -11.5976 0.239878 0.00486088 0.00726318 -0.00579071 0.00933647 0.00527763 -0.0074358 0.241972 0.289586 0.293463 0.264387 0.275791 0.302813 0.224314 0.227938 0.253098 0.297764 -11.5976 0.290314 0.280872 0.258917 0.217892 -0.00327492 0.00316715 -0.000263214 0.00219727 0.00812531 -0.132336 -0.00768185 -0.00342178 0.0127106 0.00341988 0.00626755 0.00665569 0.0102062 -0.00535965 0.00818253 0.00496292 -0.00210094 -0.00118256 0.0049305 0.0063591 0.222179 0.279458 0.2771 0.286718 0.289532 0.272341 0.233631 0.281227 0.268459 0.279203 0.305672 0.289512 0.283037 0.243246 0.00973701 0.00775528 0.0118027 0.00798035 0.00933838 -0.00478172 0.214035 0.295358 -11.5976 0.28861 0.308517 0.284029 0.227853 0.277687 0.288403 0.297447 0.281605 0.292347 0.257712 0.214334 0.00845337 0.00430298 0.000806808 0.00372601 5.53131e-005 0.00582314 0.220728 0.283754 0.273203 0.287376 -11.5976 0.276556 0.231448 -11.5976 0.308933 -11.5976 0.277733 -11.5976 -11.5976 0.233013 0.00517845 0.0094986 -0.00429726 -0.0038662 0.0122929 0.00393867
-0.00635719 -0.00191689 -11.5976 -0.00318146 -11.5976 -0.124128 0.00113297 -0.0012207 -11.5976 0.00143814 0.00356102 -11.5976 0.0526648 -11.5976 0.272373 0.288303 -11.5976 0.279221 -11.5976 -11.5976 -11.5976 0.276886 0.287022 -11.5976 0.271477 -11.5976 -11.5976 0.00082016 -11.5976 -0.00553894 0.0027771 0.000421524 0.22776 -11.5976 0.291515 -11.5976 0.310278 0.307913 -11.5976 0.215578 0.223591 0.265648 -11.5976 0.266006 0.238346 -11.5976 -11.5976 0.00243378 -0.00157166 -11.5976 -0.0108242 -0.00222969 0.116591 0.234596 0.297724 0.297674 0.301895 0.303043 -11.5976 0.209248 0.223125 0.273811 0.29104 -11.5976 0.285919 -11.5976 -11.5976 -11.5976 -0.00356483 -0.00320053 0.00185585 -0.00626373 0.00266075 -0.00300407 -11.5976 -0.00272369 -0.117744 -0.000711441 -0.00556946 0.00258255 -0.00478745 -0.00511932 -0.00226021 -11.5976 0.0640659 0.268027 -11.5976 0.263538 0.268894 0.27865 0.299494 0.196667 0.212194 0.294521 0.257225 0.266369 0.267923 -11.5976 -11.5976 -11.5976 0.000114441 0.00323486 0.00627136 -0.000926971 0.0945034 0.235815 0.236588 -11.5976 -11.5976 0.266955 0.247938 0.221771 0.225042 -11.5976 -11.5976 -11.5976 -11.5976 -11.5976 -11.5976 -0.00463104 -0.00714302 -0.000665665 -0.00485039 -0.00769997 -0.00242233 0.0119152 -0.00836754 -0.00495338 -0.00618172 0.00434303 0.00480461 -0.00841999 -0.00190735 0.00510406 0.00102425 0.00180054 0.100308 0.233 0.283573 0.271088 0.293018 -11.5976 0.289562 0.21817 0.230637 0.266219 0.301403 0.283321 0.310387 0.285837 0.20104 -11.5976 0.00316811 -0.0014801 -0.00771332 0.00321388 0.00349045 0.214271 0.314091 0.288759 0.258001 0.302912 0.274616 -11.5976 0.228518 0.27622 0.278519 0.29503 0.279754 0.281043 0.2781 0.0209274 0.00746346 -0.00200272 0.00286484 -0.00387669 0.00298214 0.250824 0.285607 0.294382 0.269194 0.265827 0.269533 0.22135 0.206618 0.260701 -11.5976 0.268513 0.293875 0.286451 0.272596 0.223799 0.00160885 -0.00110054 0.00313759 0.000934601 0.00127792 -0.106853 -0.0296087 -0.00297737 -0.00842285 -0.000473022 -0.00462151 -0.00423622 0.0109787 0.00115967 0.00211143 -0.00406075 -0.00406265 0.00424767 0.0144711 -0.00227737 0.272992 0.269127 0.283787 0.272108 0.278034 0.264845 0.235325 0.292252 0.300461 0.284315 0.281424 0.298429 0.285357 0.240746 0.00164986 0.00402164 0.00480843 0.00159073 0.00607109 0.00531769 0.228464 0.286014 -11.5976 0.286722 0.280214 0.293159 0.234668 0.299417 -11.5976 0.310305 -11.5976 0.293701 0.268124 0.215082 0.00663948 0.0153713 0.0150083 -0.00617027 0.00336838 0.0112343 0.233235 0.308084 0.304989 0.29027 0.295907 0.269934 0.232471 0.234205 0.310736 0.317152 0.302507 -11.5976 0.30131 0.232489 0.00576591 0.0133305 -0.00699043 -0.00172997 -0.00344658 -0.00714302
-11.5976 -0.0059948 -0.00850868 -11.5976 -11.5976 -0.00309753 -11.5976 -0.00981331 0.000965118 -11.5976 -0.00329018 0.000762939 0.226819 -11.5976 -11.5976 0.284243 0.276409 -11.5976 0.269871 -11.5976 0.22348 0.275171 0.293104 0.268999 -11.5976 -11.5976 -11.5976 -7.62939e-005 0.00245285 -11.5976 -0.0043354 -0.00358009 0.118673 0.276712 -11.5976 0.297392 -11.5976 0.295502 -11.5976 0.221235 0.222704 0.278011 0.274939 -11.5976 0.272367 -11.5976 -11.5976 0.00345612 0.00305176 -0.00947571 0.00299644 -11.5976 0.0607491 0.246971 0.291277 0.293085 0.28018 0.302984 -11.5976 0.225388 0.223225 0.272657 0.273087 0.274513 -11.5976 0.186144 -11.5976 -0.00357246 -11.5976 0.0123539 0.00403023 -0.00424957 0.00560951 0.00103569 0.00333786 -11.5976 -0.131895 -0.0103703 -0.00525093 0.000728607 -0.00385284 -0.014452 -0.00318527 -0.00105476 0.128562 0.275076 0.297176 0.26688 0.287836 -11.5976 0.282078 0.217537 0.21859 0.27165 0.2876 0.293472 0.275089 -11.5976 0.108782 0.00094223 -11.5976 -0.00543785 -0.000379562 -0.00616074 0.0746346 0.241299 0.207378 0.274673 -11.5976 0.24898 -11.5976 0.224302 0.22337 -11.5976 -11.5976 -11.5976 -11.5976 -11.5976 -11.5976 0.00259781 -0.0113792 -0.00342274 0.00228405 -0.00232506 -0.0089035 -0.0087347 -0.00501633 -0.0151482 -0.00298882 -0.00124836 0.00756836 -0.00119019 0.0103054 0.00365448 0.0023613 0.00811577 0.121335 0.235268 0.296284 0.271498 0.284246 -11.5976 0.287346 0.230875 0.211306 0.260647 0.292799 0.308781 0.313921 -11.5976 0.210642 -11.5976 -0.000273705 -0.0043335 -0.00401115 0.0025444 0.0998974 0.22934 0.24828 0.284369 -11.5976 -11.5976 -11.5976 -11.5976 0.223443 0.297651 0.295904 0.279747 0.301395 0.28084 0.284431 -11.5976 -0.00119591 -0.0030365 0.000954628 -0.000200272 0.00496864 0.243314 0.276631 0.294495 0.247568 0.291758 0.277575 0.227223 0.195858 0.246305 0.291676 -11.5976 -11.5976 0.290773 0.259282 -11.5976 0.00494766 -0.00219345 0.00236893 -0.0124245 0.0154076 -11.5976 -0.0650476 -0.00188255 0.00494003 -0.000635147 0.000103951 0.00237274 0.00195122 0.00270271 0.00211716 0.00526333 -0.00731277 4.19617e-005 0.00281715 -0.00166512 0.258307 0.283689 0.298353 0.289162 0.279093 0.259284 0.234047 -11.5976 0.299047 -11.5976 0.316986 0.305017 0.29808 0.238083 0.00255013 -0.00143719 0.00494385 0.00654411 0.0071373 0.00824738 0.235285 0.294918 0.295742 0.284061 0.301172 0.302771 0.234643 0.274843 -11.5976 -11.5976 0.29055 -11.5976 0.226898 0.21599 0.0109501 0.00323105 0.00623608 0.00357056 0.00525856 0.0391674 0.262676 0.29546 -11.5976 0.272219 0.306418 0.261314 0.234498 0.23693 0.309368 0.307613 0.288635 0.296722 -11.5976 0.234295 0.00587273 -0.0112419 0.000862122 0.000790596 -0.00443268 -0.00440025
0.0051899 -11.5976 -0.0083847 -11.5976 -11.5976 -0.0665131 -0.00827217 -11.5976 -0.00403023 -0.00174904 -11.5976 -0.00423431 0.117797 0.311777 0.289225 -11.5976 0.292299 0.291534 -11.5976 0.201979 0.290457 0.293571 -11.5976 0.287395 -11.5976 -11.5976 -11.5976 -11.5976 -0.0037384 0.00022316 -11.5976 -0.000110626 0.0940332 0.23329 -11.5976 0.296505 -11.5976 -11.5976 0.222691 -11.5976 0.226507 0.265617 0.266909 0.284739 -11.5976 -11.5976 -11.5976 -11.5976 -0.00808525 -0.00206566 0.00652695 0.00239372 0.0803566 0.263768 0.295202 -11.5976 0.288843 0.29468 -11.5976 0.223473 0.224422 0.275106 0.290485 0.286459 0.289658 -11.5976 -11.5976 -0.00717735 0.0045433 0.0040226 -11.5976 0.00601006 -0.00623894 -0.00240326 -0.000865936 -11.5976 -0.0656776 0.0097065 -11.5976 0.000888824 -0.0119343 -0.00183678 -0.010334 -0.00197792 0.117739 0.280382 0.304174 0.291016 0.304821 0.291584 -11.5976 0.213985 0.220947 -11.5976 0.26428 0.287745 0.269363 0.235985 -11.5976 0.00176811 0.00800133 0.0119705 0.784183 0.793129 0.184634 -11.5976 -11.5976 -11.5976 -11.5976 -11.5976 -11.5976 0.21891 0.23666 -11.5976 -11.5976 -11.5976 -11.5976 -11.5976 0.0669308 -0.000865936 -0.00711441 0.00706673 -0.00261688 0.000831604 -0.00556183 0.00473022 -0.00325584 -0.00774479 0.00313187 -0.00777435 -0.00104141 -0.00761986 -0.0051403 0.00810242 0.00184059 0.0119591 0.0639935 0.248741 0.297132 -11.5976 0.287447 -11.5976 0.274673 -11.5976 0.200512 0.249006 0.286053 0.295033 0.289902 -11.5976 0.219919 0.000448227 0.00344467 0.00247955 -0.000154495 0.00082016 0.0867233 0.24065 0.278399 0.287418 0.285595 0.274218 0.266926 0.232248 0.225113 0.275213 0.277353 0.301781 0.267303 0.275356 0.275671 0.206219 0.00951195 0.00295544 -0.00226021 -0.000211716 -0.00248718 0.243505 0.294336 0.298201 0.301023 0.283813 -11.5976 0.220188 0.224733 0.289577 -11.5976 0.291773 -11.5976 0.283604 0.237055 -11.5976 -0.00261116 0.000432968 0.0105801 -0.00498199 -0.00309753 -0.0727587 0.00861359 -0.0101414 0.00149727 -0.00127983 0.000246048 0.00374985 0.0104942 0.00736046 0.0131283 -0.00532341 0.00556755 0.00887108 -0.00434494 -0.00789642 0.261905 0.304955 0.275015 0.280584 0.295683 0.256479 0.234497 0.271856 -11.5976 0.287691 0.295042 -11.5976 0.264959 0.242709 0.00705528 0.00351715 0.00369644 0.0051403 -0.00281143 0.000925064 0.234161 0.286642 0.277523 0.278116 0.320383 0.299299 0.239717 0.275257 -11.5976 -11.5976 -11.5976 -11.5976 0.242064 0.215155 0.00906181 0.0067749 -0.00124073 0.00804901 0.00227547 0.152792 -11.5976 0.284796 -11.5976 0.291826 0.273066 0.257663 0.225016 0.219759 0.304415 0.350231 0.302395 -11.5976 -11.5976 0.200932 -0.000875473 0.000494003 0.0116653 -0.00771332 0.00108814 0.00174522
-0.00765419 -0.00656891 -11.5976 -11.5976 -0.0593872 -11.5976 -0.00301743 -11.5976 -0.000955582 0.000400543 -0.00301552 -11.5976 0.0904322 0.220455 0.292629 -11.5976 0.27935 0.284201 -11.5976 0.222717 0.220816 0.284548 -11.5976 0.287098 -11.5976 0.140173 -11.5976 -11.5976 -0.0105743 -0.00988388 -0.00101471 -11.5976 0.0809002 0.249849 -11.5976 0.303246 0.303703 -11.5976 -11.5976 0.221581 0.268002 -11.5976 0.273983 0.268307 -11.5976 0.185129 -11.5976 -0.0105057 -11.5976 0.00626564 -0.00897408 -0.00203896 0.135612 0.319025 0.278173 0.290964 -11.5976 0.290257 0.23307 -11.5976 0.237617 0.2679 0.272366 0.292021 0.285727 -11.5976 -11.5976 0.0124054 -0.0056057 9.15527e-005 -0.00398254 -11.5976 -0.00688934 -0.00382805 -0.00135803 -11.5976 -0.0684919 -0.000278473 0.000564575 -11.5976 -0.00680542 -0.0142822 -0.00301743 -0.0125694 0.100382 0.228561 0.284897 -11.5976 0.28195 0.294868 -11.5976 0.209024 0.221121 0.270412 -11.5976 -11.5976 0.26457 0.263086 -11.5976 -0.00520706 -0.00738335 0.794243 -0.00296783 0.780531 0.161491 0.239525 0.285982 -11.5976 -11.5976 -11.5976 -11.5976 0.220757 0.280678 -11.5976 -11.5976 -11.5976 -11.5976 -11.5976 0.210766 -0.00128174 -0.0134296 0.000751495 0.000249863 -0.00770187 -0.00767326 -0.0043354 0.00487137 0.0021019 0.00244713 -0.00265598 -0.00324535 -0.000217438 -0.00582504 8.01086e-005 0.000387192 -0.0126686 0.037344 0.223061 0.291479 0.281172 -11.5976 0.300589 0.280531 0.230175 0.228725 0.2939 0.29035 0.281452 0.280365 0.307152 0.222523 -0.00658035 0.00621414 -0.00377464 0.00431442 0.00265694 0.108732 0.251024 0.26903 -11.5976 -11.5976 -11.5976 0.262735 0.221342 0.228659 0.287781 0.284008 0.315123 0.292616 0.287842 0.218021 -11.5976 0.00561333 -0.00118446 -0.00724792 0.00240707 -0.00282669 0.228097 0.288229 0.290153 0.289692 0.279407 0.293222 0.229278 0.215826 0.281149 -11.5976 -11.5976 0.301865 0.293974 0.225718 -0.00276756 0.00134468 0.00415611 -0.00225544 -0.00700378 0.000627518 -0.0637531 0.0016098 0.0100517 0.00817871 0.00430679 -0.00163651 0.00156403 0.00146866 -0.00368881 -0.00646782 0.000874519 0.00804138 -0.00168991 0.00371361 -0.00728607 0.266766 0.28208 0.302639 0.299662 0.270926 0.254033 0.238346 0.310049 0.309353 -11.5976 0.298897 0.30419 0.280604 0.240009 0.00484467 0.00560188 0.0103359 0.00657368 0.00437164 0.00299168 0.222997 0.292587 -11.5976 -11.5976 -11.5976 0.296478 0.234568 0.302412 -11.5976 -11.5976 0.303663 -11.5976 0.268256 0.203787 -0.00449562 0.0172825 -0.000981331 -0.00271416 0.00517082 0.233189 0.274382 0.305397 -11.5976 -11.5976 -11.5976 0.254035 0.217358 0.236313 0.342239 0.329697 0.309946 0.305273 -11.5976 0.200048 0.00575447 -0.00159264 0.00354004 -0.00310898 0.00344467 0.00788879
-11.5976 -0.00426865 -11.5976 -0.00563049 -11.5976 -0.0839119 -0.00289154 0.00462341 -11.5976 -0.00148964 -0.0028801 -11.5976 0.0727177 0.236935 0.266115 0.278236 -11.5976 0.279047 -11.5976 0.221928 0.231092 0.270992 0.288656 -11.5976 0.26931 -11.5976 -11.5976 -0.00618172 -11.5976 -0.00315285 0.00370216 0.00263977 0.174563 -11.5976 -11.5976 -11.5976 0.277569 -11.5976 -11.5976 0.192497 0.249828 0.289133 -11.5976 -11.5976 0.252317 -11.5976 -11.5976 -0.00309563 0.000740051 -11.5976 -0.00374794 -0.0139408 0.109851 0.224096 0.285099 0.294615 0.297506 0.313492 -11.5976 0.222286 0.279354 0.272146 -11.5976 0.26659 0.266514 -11.5976 -11.5976 -0.000701904 0.00339317 -0.00149155 -0.000270844 0.00227737 -11.5976 -0.000881195 -0.000591278 -0.00411415 -0.0827637 -0.00666428 0.00117111 -0.010685 -0.00401497 -11.5976 -0.000993729 -0.00322533 0.0857553 0.220602 -11.5976 0.306271 0.29283 0.296574 0.248081 0.221132 0.282278 0.28096 0.291967 0.267534 -11.5976 0.276482 -11.5976 0.785644 0.7912 0.788884 0.00501823 0.00814056 0.0963154 0.218237 -11.5976 0.179863 -11.5976 -11.5976 0.229111 0.208126 0.226881 -11.5976 -11.5976 -11.5976 -11.5976 -11.5976 0.118717 -0.00618172 -0.00526619 -0.0100498 -0.00480843 -0.0136909 0.00392723 -0.00624084 -0.00188637 -0.00558472 0.00240231 0.00338745 0.00171089 0.000451088 -0.00683975 -0.00297356 0.00269604 -0.00979233 0.00939878 0.256365 0.288416 0.289036 0.287352 0.265076 0.286526 0.21888 0.220282 -11.5976 0.288898 0.282639 0.284666 -11.5976 -11.5976 -0.00102425 -0.000366211 0.000522614 -0.00133705 0.0018177 0.0420742 0.242746 -11.5976 0.282673 0.271021 0.257051 0.276068 0.227671 0.234064 0.263317 -11.5976 -11.5976 0.28928 -11.5976 0.230427 -11.5976 0.00200844 -0.00134468 0.00997734 0.00409317 0.112487 0.235929 -11.5976 0.290964 -11.5976 0.279045 0.283393 0.240231 0.217354 0.293406 -11.5976 0.286652 0.301888 0.282099 0.223526 0.00224304 0.00651646 0.00692081 0.00182724 -0.00245667 -0.000347614 -0.124313 0.00213718 0.00102806 0.00084877 0.00321388 -0.000864983 0.00419998 0.00859642 -0.00587082 -0.00974083 0.00203133 0.00772285 -0.00978661 0.00043869 -0.00031662 0.232649 -11.5976 -11.5976 0.301327 -11.5976 0.256569 0.236774 0.284185 -11.5976 0.303681 0.294652 0.269779 -11.5976 0.239977 0.0141354 -0.00345993 -0.00165749 -0.00410271 0.0106239 0.000398636 0.233585 0.278257 -11.5976 0.294344 0.29809 0.288347 0.227754 0.269897 -11.5976 0.269094 -11.5976 -11.5976 0.24197 0.213366 0.00260925 0.00964355 -0.00349426 -0.00135803 0.00543594 0.238878 0.269659 -11.5976 -11.5976 0.300854 0.28606 0.275258 0.225054 0.219477 -11.5976 0.302607 -11.5976 -11.5976 -11.5976 0.206563 0.00915241 0.00282097 -0.0162506 -0.00458527 -0.00384998 -0.00724411
-0.00317192 -11.5976 -11.5976 -11.5976 -11.5976 -0.120571 -11.5976 -11.5976 -11.5976 -11.5976 -11.5976 -11.5976 0.168521 -11.5976 -11.5976 0.278696 0.280596 -11.5976 0.274725 -11.5976 0.226105 -11.5976 0.288036 -11.5976 -11.5976 -11.5976 -11.5976 -11.5976 -0.000335693 -11.5976 -0.00564003 -0.00948334 0.23158 0.303534 0.295195 -11.5976 0.29364 0.299919 -11.5976 0.218102 0.224174 0.264412 0.26544 -11.5976 0.278219 -11.5976 -11.5976 -0.0069294 0.00236893 0.00753021 -11.5976 -0.000637054 0.0917835 0.24193 0.274281 0.274632 0.289808 0.303942 -11.5976 0.195923 0.233839 0.272411 0.268393 -11.5976 0.281248 -11.5976 -11.5976 -11.5976 -0.00053978 -0.0097847 -0.0032692 -0.00568962 0.0127716 -0.00419807 -11.5976 -0.00242424 -0.115786 -0.00715446 -0.00554085 -0.00510788 -0.000295639 -0.00349808 -11.5976 -0.011795 0.0703392 0.250331 -11.5976 0.293715 -11.5976 0.272446 0.293848 0.187998 0.218338 0.284081 0.274559 0.292284 0.255959 -11.5976 -11.5976 0.00294685 0.790965 0.790049 -0.00506783 -0.00506401 0.103925 0.226831 0.265036 0.227676 -11.5976 -11.5976 -11.5976 0.211908 0.2204 -11.5976 -11.5976 -11.5976 -11.5976 -11.5976 -11.5976 0.00165367 -0.00535393 -0.00548744 0.00100517 -0.00257492 -0.0107975 0.000671387 -0.000112534 0.0131378 0.00733185 0.000957489 -0.000720978 -0.00139046 0.00457191 -0.00289536 -0.00635815 0.00148106 0.00643539 0.229687 0.306057 0.286774 0.280277 0.288782 0.307766 0.232624 0.224842 0.28833 0.277016 -11.5976 -11.5976 0.273724 -11.5976 0.00142097 -0.00290108 0.000335693 -0.000431061 0.00645256 0.0360441 0.237865 0.291151 0.278203 0.28714 0.294296 0.277866 0.223886 0.225458 0.271513 0.292305 -11.5976 0.299946 0.290791 0.229441 -11.5976 -0.000815392 0.00312805 -0.00622559 -0.004179 0.104054 0.243803 -11.5976 0.300863 0.3032 0.286156 -11.5976 0.230871 0.226328 0.296741 0.284832 0.298012 0.296731 0.28158 0.219591 0.00284767 -0.00199127 0.00564194 -0.00238991 0.00209236 -0.00469589 -0.131319 0.0034256 0.000374794 0.00392342 0.00378036 -0.00152969 -0.00499535 0.00515175 0.00201607 0.010582 -0.00537777 0.016386 0.00556183 -5.14984e-005 0.122118 -11.5976 -11.5976 0.284706 0.285458 0.278791 0.256149 0.2369 0.265682 -11.5976 0.280106 0.270689 -11.5976 -11.5976 0.244762 0.00835037 0.00932789 -0.0037117 0.00781441 0.00468063 3.62396e-005 0.222984 0.291483 -11.5976 0.302374 -11.5976 -11.5976 0.235857 -11.5976 -11.5976 0.302444 0.311949 -11.5976 0.237732 0.208195 0.00615311 0.00726891 0.00849533 -1.90735e-006 -0.00220299 0.244408 0.276438 0.278572 -11.5976 -11.5976 -11.5976 0.260571 0.218469 0.228735 0.303356 0.308554 -11.5976 0.272692 -11.5976 0.162534 0.00415993 0.0115681 -0.00136375 0.0130978 -0.000888824 -0.00203133
-11.5976 -0.00915718 -0.00289154 -11.5976 -11.5976 -0.0658245 -11.5976 -0.00522614 -0.00152779 -11.5976 -0.00525665 -0.00349045 0.225007 -11.5976 -11.5976 -11.5976 -11.5976 -11.5976 -11.5976 0.216429 0.300739 -11.5976 -11.5976 0.303745 -11.5976 -11.5976 -11.5976 0.000831604 -11.5976 -11.5976 -11.5976 -11.5976 0.120646 0.217573 -11.5976 -11.5976 -11.5976 -11.5976 -11.5976 0.215796 0.220945 -11.5976 0.265326 0.267353 -11.5976 -11.5976 -11.5976 -0.0102787 -4.95911e-005 -11.5976 -0.00288773 -11.5976 0.0782404 0.258642 -11.5976 -11.5976 0.279596 0.275833 -11.5976 0.221064 0.22784 0.27623 0.275484 0.272789 -11.5976 0.182941 -11.5976 -0.00228882 -11.5976 0.00559998 0.00169373 -0.00323677 0.00949097 0.00169754 -0.000892639 -11.5976 -0.132761 -0.00436592 -0.0027504 -0.00761604 -0.00171089 0.00458336 -0.00976944 -0.00557137 0.175086 0.281431 0.284613 0.279907 -11.5976 0.27306 -11.5976 0.215527 0.214748 -11.5976 0.29369 0.297432 0.28459 -11.5976 -11.5976 -11.5976 -0.00401497 0.00197983 -0.00675011 0.791787 0.101076 0.237114 -11.5976 -11.5976 -11.5976 -11.5976 0.26886 0.227659 0.22665 -11.5976 -11.5976 -11.5976 -11.5976 -11.5976 -11.5976 0.00233078 -0.00544357 -0.00448418 -0.00329018 0.000291824 -0.0105591 -0.00127411 0.00586891 -0.00793648 -0.000514984 -0.00377464 0.00664902 -0.00751877 -0.004673 -0.00097847 -0.000202179 -0.00265121 0.103016 0.239231 0.290285 0.305988 0.291245 0.25902 0.284836 0.21637 0.233124 0.277536 0.27492 0.270681 0.298729 -11.5976 -11.5976 0.031208 -0.0104141 0.00261307 -0.0014267 0.000637054 0.0105677 0.239216 0.262804 0.270168 -11.5976 -11.5976 -11.5976 0.22617 0.229607 0.296335 0.29071 -11.5976 -11.5976 0.269609 0.219912 0.00969505 0.00474167 0.000442505 0.00104523 -0.00391006 0.103393 0.239096 -11.5976 -11.5976 -11.5976 0.259069 -11.5976 0.231915 0.217899 -11.5976 -11.5976 0.283764 -11.5976 -11.5976 0.226711 -0.0113316 0.00030899 -0.00541878 0.00566292 -0.00151634 0.00133228 -0.136623 0.000749588 0.00312805 0.000150681 0.00820065 0.00596237 0.00701046 0.00223732 0.0067997 -0.000923157 0.0110683 -0.00336838 -0.00154495 -0.00239182 0.120077 -11.5976 0.285851 -11.5976 0.288048 -11.5976 0.259293 0.240429 -11.5976 0.304428 0.282701 0.302299 0.277002 -11.5976 0.240517 0.00536537 0.00354576 -1.71661e-005 0.00328827 0.0150585 0.00171089 0.226515 0.29049 -11.5976 0.280598 0.300179 -11.5976 0.237089 0.284532 -11.5976 -11.5976 -11.5976 -11.5976 0.239853 0.198632 0.00640869 0.0121861 -0.00102901 -0.00144386 0.00781631 0.241709 -11.5976 0.284866 -11.5976 0.302593 0.276775 0.265308 0.224604 0.233166 0.339317 0.312761 0.310656 0.297306 0.30788 0.124302 -0.00104523 0.000768661 0.00448418 0.00358772 0.00419521 -0.0020504
-0.00702477 -11.5976 -0.00216103 -11.5976 -11.5976 -0.0110798 0.00221062 -11.5976 -0.00265503 -0.00605392 -11.5976 7.62939e-005 0.0284004 0.319954 -11.5976 0.273821 0.280247 0.279987 -11.5976 -11.5976 0.271275 -11.5976 0.27804 0.275372 -11.5976 -11.5976 0.00942039 -11.5976 0.00373077 -0.00124741 -11.5976 -0.00182343 0.0893774 -11.5976 -11.5976 0.29117 -11.5976 -11.5976 -11.5976 0.239042 -11.5976 -11.5976 -11.5976 -11.5976 -11.5976 -11.5976 -11.5976 -11.5976 -11.5976 0.0060463 -11.5976 -11.5976 0.172208 -11.5976 -11.5976 0.297266 -11.5976 -11.5976 -11.5976 0.219755 0.220303 0.265585 -11.5976 -11.5976 -11.5976 0.244062 -11.5976 -0.00419617 -0.00875473 -11.5976 -0.00239754 0.00358009 -0.00174904 0.00492477 0.00484467 -11.5976 -0.0683451 -11.5976 -0.00400734 0.000627518 0.000144958 -0.0122261 -0.0049572 0.00141907 0.112964 0.292469 0.298767 -11.5976 0.268698 0.276562 -11.5976 0.212265 0.21912 0.261667 0.289494 0.259161 0.259092 -11.5976 0.167898 0.00238991 0.785563 1.57496 0.783422 1.37706 0.139715 -11.5976 -11.5976 -11.5976 -11.5976 0.266424 0.247898 0.229101 0.219236 -11.5976 -11.5976 -11.5976 -11.5976 -11.5976 -11.5976 -0.00196266 -0.00274467 0.00226021 -0.012392 0.00534058 -0.00397301 -0.00245285 -0.00526047 -0.00195885 -0.000673294 0.00145912 -0.00292969 -0.00634766 0.00721741 0.004076 -0.00711632 0.000549316 0.0994377 0.217997 0.293766 0.286779 0.272032 0.264849 0.301386 0.220501 0.232279 -11.5976 -11.5976 -11.5976 0.295216 0.266582 0.205585 -11.5976 0.000389099 -0.00101089 -0.000335693 -0.0060997 -0.00780487 0.242226 0.275965 0.27787 0.281425 0.302584 0.308693 0.226274 0.229542 0.287249 0.282185 0.298328 0.296265 0.287273 0.218151 0.000494003 0.00347519 0.00119591 -0.000226974 0.00133896 0.0982189 0.226458 0.27935 0.289097 0.305277 0.275862 0.298489 0.22316 0.218943 0.309713 0.29841 0.301585 0.271734 0.296255 0.218889 -0.00388718 0.000911713 -0.00420761 0.00484848 -0.000132561 0.00553131 -0.130268 -0.00471306 -0.00995445 0.00634384 0.0038271 0.013855 0.00937653 0.0204563 0.00845909 0.00322628 0.0102396 0.0102577 0.00920486 0.00299358 0.118814 0.288918 0.301201 0.283693 0.289263 0.286422 0.228106 0.243187 -11.5976 0.317268 0.300362 0.306225 0.302116 0.297037 0.241093 -0.00103378 0.00420189 -0.00037384 0.00572586 0.00818443 0.00601196 0.22879 0.268215 0.29962 0.294306 -11.5976 0.279604 0.231914 -11.5976 0.287868 -11.5976 -11.5976 -11.5976 0.243837 0.200254 0.00930405 0.00794983 -0.00293922 0.000514984 -0.000148773 0.230297 -11.5976 -11.5976 -11.5976 -11.5976 -11.5976 0.271749 0.225148 0.233709 -11.5976 -11.5976 -11.5976 -11.5976 -11.5976 0.129824 0.00246048 -0.00411224 0.00240135 -0.00409126 0.0157204 0.000188828
-0.0144138 -0.00034523 -11.5976 -11.5976 -0.134045 -0.00474167 -0.00327873 -11.5976 -0.00502586 -0.0042305 -0.00322914 -11.5976 0.0962286 0.229118 0.269434 -11.5976 0.27788 0.271563 -11.5976 0.209867 0.234671 0.287226 -11.5976 0.285494 -11.5976 -11.5976 -11.5976 -11.5976 -0.00419426 -0.000444412 -0.00599289 -11.5976 0.0633202 0.23457 0.296799 0.290722 -11.5976 -11.5976 0.273596 -11.5976 -11.5976 -11.5976 0.265528 -11.5976 -11.5976 -11.5976 -11.5976 -11.5976 -0.0057354 -0.000570297 -0.000169754 0.00742722 0.145112 0.376238 -11.5976 -11.5976 -11.5976 -11.5976 -11.5976 0.232849 -11.5976 -11.5976 -11.5976 0.259583 -11.5976 -11.5976 -11.5976 -11.5976 -0.00477028 -11.5976 -11.5976 -11.5976 0.00349236 -9.91821e-005 -0.00842094 -11.5976 -0.0682306 -0.00389481 -11.5976 -0.0157433 -0.00984001 0.00361824 0.00902557 0.00420952 0.1139 0.212 0.264046 0.28113 0.26729 0.283236 -11.5976 0.220358 0.218803 0.267578 0.285139 0.274254 0.274185 0.230127 -11.5976 -0.00786781 -0.00264168 0.00807762 0.000160217 1.2879 0.189017 0.328716 0.2332 0.320152 -11.5976 -11.5976 -11.5976 0.221966 0.234831 -11.5976 -11.5976 -11.5976 -11.5976 -11.5976 -11.5976 -11.5976 -0.00222778 0.00184822 -0.00675297 -0.00236511 -0.00613785 0.0103436 0.00260735 -0.00100899 -0.0112648 -0.00190163 0.00660896 0.0084877 -0.0130844 0.00569344 -0.00549889 0.00325584 0.0978012 0.235954 0.273971 0.273798 0.285954 0.30846 0.276474 0.226171 0.246242 0.259175 0.293554 0.291533 0.307281 0.281279 0.227282 -11.5976 -0.00888062 -0.00322851 0.00292301 -0.000680923 0.000811577 0.224553 0.258727 0.288851 0.284317 0.275328 0.30863 0.218571 0.210656 0.244747 0.273054 0.296566 0.28985 0.289398 0.222139 -0.00947952 0.00203896 0.0104866 0.0106068 -0.0038166 0.0978616 0.239309 0.281317 0.265289 0.275575 0.278378 0.281803 0.225294 0.230547 0.288534 0.300296 0.298367 0.290022 0.301188 0.233614 -0.000654221 -0.0017662 0.00384331 0.00901413 0.00589752 0.0028553 -0.133554 0.00689697 0.013485 -0.00532818 0.00249863 -0.00031662 0.00391197 0.00442314 0.00206184 0.00312614 -0.00192451 0.0089817 0.0056057 0.00449371 0.112429 0.287617 0.301605 0.290941 0.312347 0.311916 0.232397 0.221846 0.251558 0.266897 0.295185 0.283955 0.319292 0.298218 0.23312 0.00419998 0.00641632 0.00891304 -0.00548172 0.00596046 -0.00721931 0.231834 0.283977 -11.5976 -11.5976 0.313728 0.295528 0.230525 0.290304 -11.5976 -11.5976 0.310694 -11.5976 0.252023 0.216467 0.0100737 -0.000595093 -0.00224924 -0.000352859 0.00740433 0.248865 0.29812 -11.5976 0.313446 0.313766 -11.5976 0.274668 0.220893 0.226191 0.324236 0.337271 0.299686 0.292704 0.288851 0.125709 0.0163422 -0.00465965 0.0116196 -0.00232697 0.00305748 0.0056839
-0.00872803 0.00191116 -11.5976 -0.00357246 -11.5976 -0.0759964 -0.00630379 0.0030098 -11.5976 -0.000394821 -0.00794411 -11.5976 0.0779667 0.237812 0.265047 0.260408 -11.5976 0.279165 -11.5976 0.215456 0.217207 0.276302 0.278164 -11.5976 0.269035 -11.5976 -11.5976 -0.00481796 -11.5976 -0.00635529 -0.00241089 -0.00479889 0.159904 0.298367 -11.5976 0.301498 0.29175 0.297915 -11.5976 0.216665 0.288975 -11.5976 0.265408 0.273058 0.230001 -11.5976 -11.5976 0.00178528 -11.5976 -0.00580788 -0.00868607 0 0.115044 0.287575 0.279198 0.283186 -11.5976 0.256417 0.256422 0.224667 0.269245 0.225262 0.243574 0.229622 0.249332 -11.5976 -11.5976 -0.00300598 -11.5976 0.0112476 0.00477791 -11.5976 -11.5976 -0.00495529 -11.5976 -0.0184517 -0.0646744 -0.00858307 -11.5976 0.00212479 0.00498772 -11.5976 -0.00576782 0.00263405 0.0988674 0.22069 0.25313 0.271145 0.280956 0.280569 0.217531 0.227343 0.27223 0.279366 0.277971 -11.5976 0.258307 0.257668 -11.5976 -0.00162125 -0.00852585 -0.00730896 -0.00867271 0.00402641 0.159155 0.217041 0.216883 -11.5976 0.285587 0.346699 0.217947 0.24152 -11.5976 -11.5976 0.277796 -11.5976 -11.5976 -11.5976 0.198387 -0.00979805 -0.000749588 -0.00234222 -0.00357246 0.00361443 -0.00218201 -0.010891 0.00329208 -0.00234795 0.000459671 -0.00384712 -0.003582 -0.00870132 -0.0021286 0.00250053 -0.00727844 -0.00677299 0.0851221 0.248449 -11.5976 0.278534 0.2719 0.293457 0.26568 0.25453 0.214477 0.283558 0.284456 0.266907 0.282328 0.265507 0.226881 -11.5976 0.00767899 0.0097084 -0.00237846 -0.00598145 0.103049 0.227255 0.290926 0.269201 0.280533 0.300591 0.261627 0.232149 0.208235 0.243733 0.298483 0.286715 0.290718 0.289177 0.22613 -0.00844765 0.000118256 -0.00839329 -0.00483131 -0.00667 0.0579338 0.241602 0.268837 0.289792 0.278818 0.306452 0.286892 0.224472 0.232679 0.294228 0.289924 0.298479 0.320732 0.291498 0.230766 0.0156097 0.00409508 -0.00162888 -0.00330162 0.000724792 0.00482941 -0.121332 0.00515175 0.00303268 0.00177193 0.014883 0.00166321 -0.00499916 0.00344849 0.0086956 -0.00143147 0.00843811 -0.00458336 0.00835991 0.000566483 0.114169 0.310862 0.288528 0.300055 0.294897 0.293859 0.223944 0.226208 0.231478 0.283464 0.295589 0.30099 0.308523 0.290569 0.248755 0.00132465 0.0105591 0.0104179 -8.7738e-005 0.00670433 0.000968933 0.24173 0.280197 0.288624 0.296507 0.292637 0.300602 0.222943 0.293783 0.30135 0.289865 0.295294 0.275326 0.29661 0.205347 0.0127068 0.00111008 0.000762939 0.00172234 0.00785446 0.224571 0.300201 0.30047 0.292555 0.292877 -11.5976 0.263607 0.238028 0.230137 -11.5976 0.295271 0.322721 -11.5976 0.288584 0.124999 -0.0014267 6.10352e-005 0.000375748 -0.00380707 0.0031147 0.0102425
-11.5976 -11.5976 -11.5976 -11.5976 -11.5976 -0.107044 -11.5976 -0.00699997 -0.00681114 -11.5976 -0.00455284 -0.00161171 0.126316 0.207697 0.201138 -11.5976 0.19541 0.202501 0.208729 -11.5976 0.205956 0.219742 -11.5976 0.222696 0.215748 -11.5976 -11.5976 0.00219727 -0.0069809 -11.5976 0.000404358 -0.00557327 0.128067 -11.5976 0.222225 0.219139 0.22122 -11.5976 0.218376 0.215126 0.222363 -11.5976 0.211885 0.216261 0.214941 -11.5976 -11.5976 -0.00951958 -0.00123596 -11.5976 0.000253677 -0.00552368 0.0868597 0.264109 0.223211 -11.5976 0.221905 -11.5976 0.226133 0.202181 0.197805 -11.5976 0.208128 0.201077 0.193747 -11.5976 -11.5976 0.00659752 -0.00777054 -0.00731468 0.00286865 0.00408363 -11.5976 -11.5976 -0.0039444 -11.5976 -0.112328 -11.5976 0.00413704 -0.00600433 -11.5976 -0.00363159 -11.5976 -0.00347137 0.0847616 0.208525 0.227911 0.217918 0.223686 0.219419 0.217215 0.214737 0.224785 -11.5976 0.209358 0.216215 0.201519 0.216125 -11.5976 0.00335503 0.000339508 0.00358009 0.00424194 -0.00234413 0.0870883 0.22422 0.218763 0.222208 0.220594 0.223705 0.223267 0.242636 0.234713 0.231316 0.235762 0.224424 0.221962 0.222681 -11.5976 -0.00633621 -0.00242233 -0.00106049 -0.00431442 0.000692368 -0.00199127 -0.00447083 0.00861931 0.00205612 0.00704384 0.0024128 -0.00492287 0.00456047 0.00632286 0.00209236 8.39233e-005 0.00276756 0.0737553 0.214315 0.261738 0.251799 0.23204 0.259418 0.214149 0.22319 0.225828 0.260103 0.249274 0.257915 0.25912 0.248446 0.226652 -0.00667572 0.000289917 -0.00731468 -0.000589371 0.0077858 0.0966082 0.217396 0.253582 0.252392 0.261149 0.251919 0.255544 0.223385 0.22373 0.254148 0.254081 0.259103 0.254956 0.25489 0.231781 0.01124 0.00377655 -8.39233e-005 -0.00341797 -0.00958316 0.0123692 0.25304 0.283226 0.279861 0.275646 0.289598 0.290396 0.214787 0.24707 0.284542 0.287683 0.317205 0.281982 0.28833 0.218128 0.00702095 -0.00542259 -0.00276947 0.00535011 -0.00442696 0.00697136 -0.128546 0.0062027 -0.00757408 0.00235653 -6.29425e-005 0.00271606 -0.00208473 0.00899315 0.00168324 -0.00680351 0.00653648 0.00671005 0.011879 -0.000566483 0.114897 0.282599 0.294844 0.308231 0.292833 0.284021 0.244673 0.210522 0.235513 0.289623 0.290731 0.294573 0.283625 0.292839 0.241106 0.00258636 0.00631523 0.0119247 -0.0034008 -0.00235939 -0.0110493 0.230803 0.282943 0.265903 0.302187 0.292566 0.296032 0.228239 0.292782 0.287466 0.29073 0.299139 0.304228 0.297522 0.195658 0.0096817 0.019186 0.0134182 0.0062952 0.00178146 0.239281 0.302771 0.293716 0.303185 0.3029 -11.5976 0.258451 0.233686 0.231289 0.290682 0.302786 0.289052 0.294844 0.28771 0.125301 0.0133839 -0.00234985 0.00882149 -0.00357819 -0.0101509 0.00860405
-11.5976 -0.0085907 0.00228119 -11.5976 -11.5976 -0.0667067 -11.5976 -11.5976 -11.5976 -11.5976 -11.5976 -11.5976 0.143212 -11.5976 -11.5976 -11.5976 0.222097 -11.5976 0.210884 0.218246 -11.5976 0.215363 -11.5976 0.238308 -11.5976 -11.5976 -11.5976 -0.00638199 -0.00372314 -0.00489807 -11.5976 -0.00401497 0.195324 -11.5976 -11.5976 0.214487 0.208008 0.210617 0.248161 -11.5976 0.232666 0.239315 -11.5976 0.235289 0.234131 -11.5976 -11.5976 -0.011982 -0.0022831 0.00466156 0.0102406 -11.5976 0.0720406 0.230549 0.218136 0.220261 -11.5976 0.206076 0.212812 -11.5976 -11.5976 -11.5976 -11.5976 -11.5976 -11.5976 -11.5976 0.110785 -11.5976 -0.00302124 0.00896072 -0.00465965 -0.00781059 -0.00173187 -0.00415611 -11.5976 -0.00730705 -0.124332 -0.000226974 -0.00087738 -11.5976 0.000131607 -11.5976 -0.0101833 -11.5976 0.1906 -11.5976 0.210289 0.21493 0.205132 0.215504 0.21936 0.193399 0.219778 0.249468 0.228792 -11.5976 0.215351 0.198221 -11.5976 -0.00798988 0.0104637 -0.00121117 0.00441551 -0.00325966 0.0927744 -11.5976 0.230425 0.22081 0.237707 0.23258 0.229025 0.229591 0.229273 0.213747 0.223976 0.241232 0.226025 0.17046 -11.5976 -0.0140705 0.00601959 -0.0016346 0.00304031 -0.00873566 -0.00147247 -0.00488472 -0.00359917 0.0119152 -0.00549889 -0.00187111 -0.00532913 -0.00252151 -0.000152588 0.00075531 0.00885773 0.00601292 0.0708704 0.223539 0.223028 0.229109 0.222524 0.23316 0.224035 0.220123 0.217339 0.217072 0.226221 0.219233 0.207312 0.220179 0.218487 0.00118256 0.00208092 -0.00240707 -0.0025177 0.00399399 0.083169 0.208307 0.206608 0.199814 0.200413 0.205873 0.211824 0.203493 0.21171 0.199408 0.199116 0.201347 0.210327 0.19418 0.20138 0.00765228 0.00228691 -0.0125656 -0.00831032 -0.00878334 -0.00170517 0.221709 0.217882 0.21296 0.212244 0.217299 0.223074 0.221571 0.231802 0.222805 0.227503 0.221304 0.233158 0.22801 0.219009 0.0852528 0.0060215 -0.0084095 0.00226688 0.0231724 -0.00550461 -0.134785 0.0050621 0.0103912 0.00168324 0.00159454 -0.00401688 -0.00229454 -0.000686646 0.00271034 -0.00328255 -0.00205421 0.00634384 -0.000753403 -0.000760078 0.227793 0.238949 0.255384 0.267925 0.265258 0.2599 0.235769 0.211859 0.230999 0.251015 0.245351 0.251803 0.238273 0.237929 0.225037 0.000761509 0.00393486 0.00285912 0.00632286 -0.00178719 -6.29425e-005 0.230566 0.231549 0.2278 0.225885 0.222017 0.227346 0.229949 0.225794 0.218615 0.220337 0.232475 0.216297 0.218464 0.179281 0.0079174 -0.00105286 -0.00573349 -0.00463009 -0.00326729 0.22822 0.249087 0.260764 0.265103 0.266455 0.282732 0.25611 0.227741 0.233696 -11.5976 0.282827 0.279291 0.266338 0.270874 0.121245 -0.000377655 -0.00788116 0.00855637 -0.00384521 0.00247192 0.0102043
-0.00339127 -11.5976 -0.00746536 -11.5976 -0.145638 -0.0087719 0.000707626 -11.5976 0.00542068 -0.00664711 -11.5976 -0.00588608 0.207008 -11.5976 -11.5976 -11.5976 0.22126 0.23278 -11.5976 0.221935 -11.5976 -11.5976 0.239775 0.235008 -11.5976 -11.5976 -11.5976 -11.5976 0.00110817 -0.00987816 -11.5976 -0.00866699 0.170568 -11.5976 0.215567 -11.5976 0.223263 0.209686 0.211115 -11.5976 0.236258 0.235435 0.250713 -11.5976 0.215302 -11.5976 0.0484543 -11.5976 -0.00191689 0.000669479 0.00221062 -11.5976 0.116215 -11.5976 0.23407 0.211914 0.247059 0.242283 -11.5976 0.241144 0.211395 0.236671 0.233818 -11.5976 0.233644 -11.5976 -11.5976 -0.00198174 -11.5976 -0.00213242 -0.00160027 -0.00551605 -0.0019455 0.00310898 0.00105286 -11.5976 -0.134483 -0.000879288 -0.000762939 0.00470161 0.0036869 -8.01086e-005 -11.5976 -0.00137901 0.153862 0.23749 -11.5976 0.229521 0.217869 0.224968 0.219648 0.249226 0.19068 0.213984 0.211823 0.231213 0.225439 -11.5976 -11.5976 -11.5976 -0.00197411 -0.00229454 0.00722122 -0.00138474 0.20524 -11.5976 0.240545 0.230009 0.189051 0.223423 0.252983 0.23863 0.245306 0.244101 0.235195 0.234095 0.239109 0.16847 -11.5976 0.000272751 0.0004673 -0.00718498 -0.00158119 -0.00619507 -0.00685692 -0.00452614 0.00873184 0.0212879 -0.00279045 0.00269127 -0.00185585 -0.00697136 -0.000556946 0.0028429 0.00119209 -0.00522041 0.00971794 0.220951 0.231652 0.226259 0.251554 0.223581 0.22473 0.228582 0.255489 0.227552 0.24633 0.230644 0.232557 0.238592 0.219021 0.00111198 -0.00219536 -0.0083828 0.001297 -0.00804901 0.0801477 0.284216 0.218351 0.250563 0.234377 0.234113 0.243122 0.236771 0.217554 0.245188 0.210543 0.22645 0.248791 0.204842 0.210953 -11.5976 0.00720978 0.0105247 0.00290394 0.00204086 -0.0012455 0.237102 0.232346 -11.5976 0.23723 0.219713 0.220512 0.219006 0.213446 0.220933 0.235353 0.230402 0.205494 0.226704 0.218796 0.184294 0.00488281 -0.00236893 0.00990677 -0.0093441 0.00873756 -0.135925 0.0165081 0.00218201 -0.00223541 -0.000635147 0.00727844 -0.00419998 0.00112915 0.00228119 -0.00162697 0.000534058 -0.00300789 0.00123215 0.00322437 0.233786 0.213882 0.237341 0.226685 0.228827 0.234005 0.248888 0.211939 0.216017 -11.5976 0.231545 0.197397 0.224586 0.227734 0.235734 0.000641823 -0.00104141 0.0100737 -0.00176811 -0.00374031 -0.00168037 0.201939 0.20432 0.212053 0.201145 0.212021 0.20787 0.207764 0.209112 0.211254 0.215607 0.20648 0.214361 0.23205 0.141271 0.0103168 0.00305367 0.00177383 0.00320244 0.0146484 0.261656 0.24617 0.234165 -11.5976 0.232323 0.231737 0.232809 0.225917 0.239182 0.247036 0.238962 0.244008 0.23102 0.231501 0.230362 0.00635242 0.00988388 0.00521469 0.00367165 -0.000425339 0.00374031
0.00120354 -0.00597572 -11.5976 -11.5976 -0.000577927 -11.5976 -0.00292397 -11.5976 -0.0114536 -0.00809479 -11.5976 -0.00624657 0.16283 -11.5976 -11.5976 -11.5976 -11.5976 -11.5976 -11.5976 -11.5976 0.219955 -11.5976 -11.5976 0.222067 -11.5976 0.125937 -11.5976 -11.5976 -11.5976 -11.5976 -11.5976 -11.5976 0.212846 -11.5976 0.236277 -11.5976 0.250471 -11.5976 0.234938 0.243118 -11.5976 0.209618 0.219774 0.222498 -11.5976 -11.5976 -11.5976 -0.00388908 -11.5976 -0.00239372 -0.0114346 -0.000492096 0.142752 -11.5976 -11.5976 0.236246 0.21459 0.246868 -11.5976 0.216469 0.242283 0.244526 0.22394 0.237463 -11.5976 0.206249 -11.5976 0.00309372 -0.000328064 0.00271034 -11.5976 -0.00774956 0.0053215 0.00120163 -0.00210762 -11.5976 -0.0693655 -11.5976 0.000610352 -0.0023365 -0.00132751 -0.00788116 -0.00460625 -0.0124531 0.129249 -11.5976 0.224672 0.216295 -11.5976 0.227272 -11.5976 0.214674 0.23794 0.207281 0.176664 0.240673 0.230097 -11.5976 0.0917072 0.0137157 0.00329971 -0.00739861 -0.00278473 -11.5976 0.177145 -11.5976 -11.5976 0.235926 0.205084 0.232296 0.226887 0.216255 0.210194 0.243025 0.203804 0.201006 0.235861 0.207836 -11.5976 -0.00871658 0.00671959 -0.00186539 -0.00232124 0.00579834 0.000328064 0.00561333 -0.00118637 -0.00727272 -0.00789452 -0.000230789 0.00844955 0.000858307 -0.00645256 0.00772095 0.00450706 -0.00267982 -0.00468445 0.208319 0.205446 0.220875 0.239017 0.231104 0.226027 0.235018 0.242954 0.224199 0.227121 0.237082 0.222372 0.229338 0.228252 -0.00753784 -0.000732422 -0.00319672 -0.00112534 0.000415802 0.061101 -11.5976 0.245918 0.206192 0.242238 0.225044 0.220518 0.22784 0.243422 0.23003 0.192152 0.228855 0.207857 0.225901 0.220358 0.0999279 -0.000944138 -0.00299454 0.00579262 -0.00594902 -0.000694275 0.226702 0.236176 0.252685 0.237013 0.243574 0.243255 0.243548 0.283567 0.212621 0.231613 0.216669 0.219927 0.220554 0.217304 0.202093 0.00887871 0.00294685 0.00224304 -0.000684738 -0.00280571 -0.135815 0.00201225 0.00166893 0.00362587 -0.00144958 0.00613785 0.0117493 0.00667381 -0.00118351 0.00780487 0.00592041 -0.00880051 -0.00115776 0.00271988 0.242729 0.241619 0.210579 0.229721 0.221862 0.23348 0.223822 0.250086 0.267206 0.257254 0.201817 0.263933 0.215679 0.254219 0.242378 0.000423431 -0.00957489 0.00206566 -0.0149574 -0.00476456 -0.000293732 0.234304 0.243592 0.197844 0.246235 0.244835 0.214764 0.238793 0.250158 0.208221 0.218613 0.257446 0.240501 0.242672 0.15371 0.00295639 0.00144577 0.00247765 0.0066185 -0.00558853 0.22975 0.214096 0.250666 0.276691 -11.5976 0.310635 0.273799 0.236666 -11.5976 0.275494 0.245378 -11.5976 0.312685 0.3034 0.223898 0.00221729 0.00216293 -0.000646591 0.00433731 0.00117493 0.00440407
-11.5976 -0.0102596 -11.5976 -0.00665283 -11.5976 -0.0615387 -0.00704002 -0.00466919 -11.5976 -0.00131035 -0.0142326 -11.5976 0.143414 -11.5976 0.219099 -11.5976 0.228378 0.22698 -11.5976 0.219242 -11.5976 -11.5976 -11.5976 -11.5976 -11.5976 -11.5976 -11.5976 -0.00201607 -11.5976 -0.00738716 0.00331688 -0.00210953 0.167158 0.46563 -11.5976 -11.5976 0.239113 -11.5976 0.246164 0.24049 -11.5976 -11.5976 0.228815 0.197779 0.22607 -11.5976 -11.5976 -0.00340652 -0.00142479 -11.5976 0.00274467 0.00125122 0.218726 -11.5976 0.233027 -11.5976 0.216061 0.239609 0.218872 0.239229 -11.5976 0.236345 0.24004 0.221972 0.228575 -11.5976 -11.5976 0.00751686 -0.000101089 -0.00235558 0.00617409 -11.5976 -0.00128555 -0.00151825 0.000629425 -11.5976 0.00819969 0.00443459 0.00646591 -11.5976 -0.000448227 0.00310516 0.00250244 0.00540543 0.203131 -11.5976 -11.5976 0.211727 0.213688 0.227774 -11.5976 -11.5976 0.221409 -11.5976 0.239 0.235668 0.232084 0.195728 -11.5976 -0.00276947 0.00172997 -0.00382996 0.0121498 -0.0010643 0.241755 0.2337 -11.5976 0.218033 0.242316 -11.5976 0.212265 0.208794 -11.5976 0.223438 0.226345 0.229614 0.195288 0.244696 -11.5976 -0.0015316 -0.00708199 0.00625229 -0.00197029 0.00583076 0.0036335 0.00673676 -6.86646e-005 0.00645638 -0.00468254 0.00973892 0.00462532 -0.00776482 0.00386238 0.000152588 0.00486374 -0.00620079 0.099575 0.237022 0.203463 0.217962 0.20767 0.222448 0.242849 0.235058 0.266617 0.221451 0.216606 0.204035 0.220556 0.217271 -11.5976 0.0198994 -0.0094986 -0.0101032 -0.000421524 -0.0114651 0.0315952 0.280432 0.251104 0.229099 0.233753 0.248564 0.189497 0.254318 0.202005 0.229641 0.229191 0.235916 0.225636 0.228166 -11.5976 0.114916 0.00196552 0.00198174 -0.00110626 -0.00523949 0.114157 0.24481 0.230648 0.217611 0.241444 0.239282 0.24361 0.225801 0.242633 0.215899 0.240738 0.236485 0.201982 0.223547 0.22884 0.194103 0.00126457 -0.00187174 -0.0057373 0.0084095 -0.00815582 -0.146423 -0.000991821 0.00346375 0.00309372 0.00251198 0.0056057 4.00543e-005 -0.00520039 0.0190277 0.00354958 -0.00501633 -0.00220299 0.000339508 -0.00541973 0.240343 0.235344 0.214546 0.227333 0.23569 0.233112 0.213053 0.21664 0.236231 0.232937 0.221619 0.239035 0.249296 0.254141 0.231451 -0.00516224 0.00771904 0.00478172 -0.0021553 -0.00406837 -0.00125504 0.242006 0.23708 0.232075 0.250658 0.247719 0.217649 0.253149 0.243244 0.245693 0.229559 0.221363 0.200689 0.297365 0.0571899 -0.00193024 0.00648308 -0.00581169 0.00181293 0.00131226 -11.5976 0.242229 -11.5976 0.252895 0.260721 0.220594 0.267789 0.200791 -11.5976 0.283447 0.288095 0.228081 0.303259 0.232061 0.210743 0.000796318 -0.0105 -0.00260925 0.00237274 0.00634003 0.0024395
-11.5976 -11.5976 -0.0112591 -11.5976 -11.5976 -0.0628777 -11.5976 -0.0125427 0.00187492 -11.5976 0.00312614 -0.00366592 0.226156 0.335354 -11.5976 0.235172 -11.5976 -11.5976 0.231817 0.501139 0.230673 0.237225 -11.5976 0.226854 0.207968 -11.5976 -11.5976 -0.00966835 -0.00554848 -11.5976 -0.00231552 -0.00741196 0.229871 0.462351 -11.5976 -11.5976 -11.5976 -11.5976 -11.5976 -11.5976 0.306915 -11.5976 -11.5976 -11.5976 -11.5976 -11.5976 -11.5976 -0.00242996 -0.00170517 0.00186729 -11.5976 -0.01021 0.196772 -11.5976 0.240993 0.234451 -11.5976 0.243374 0.231045 0.222479 0.237003 -11.5976 0.232462 0.239925 0.235945 -11.5976 -11.5976 0.00495911 -0.000320435 -0.0128345 -0.0117798 -0.000246048 -0.00156975 -11.5976 -0.00875854 -0.0498028 0.00596619 0.00220871 -0.00493431 -0.00109863 -11.5976 -0.00191116 -0.000331879 -0.00288391 0.182813 -11.5976 0.232868 -11.5976 -11.5976 -11.5976 0.236258 -11.5976 -11.5976 -11.5976 -11.5976 0.230988 0.205009 0.182638 -11.5976 -11.5976 -0.00201797 -0.0013485 -0.00684547 -0.00154114 0.278425 0.233234 0.219421 0.223429 0.222952 -11.5976 0.213642 0.255592 -11.5976 0.239103 0.236635 -11.5976 0.237284 0.199469 -11.5976 -0.00535583 -0.00103951 0.00270462 -0.00316048 -0.00442696 -0.00394821 0.00291824 0.0055294 -0.00253487 -0.00667381 -0.0110531 -0.00326729 -0.00477791 -0.000598907 -0.00308609 -0.00209618 0.0039463 0.106227 -11.5976 0.232422 0.213192 0.206015 0.24255 0.22566 0.223612 0.19705 0.251026 0.24044 0.216053 0.222848 0.232107 -11.5976 -11.5976 -0.00727081 -0.00289345 0.00213051 -0.00386906 0.00793457 0.222874 0.23704 0.199335 0.212686 0.234661 0.181341 0.242882 0.231594 0.238722 0.241226 0.226826 0.222922 0.242407 0.127279 -11.5976 0.00103378 -0.00152206 0.000207901 0.00198555 0.0955229 0.224398 0.233223 0.227951 0.267448 0.231709 0.186691 0.231305 0.233175 0.222359 -11.5976 0.238168 0.194927 0.233253 0.21174 -11.5976 0.00358327 0.000524521 0.00511551 0.00785255 0.00277901 -0.135464 0.00494576 -0.00474548 0.00195313 0.00914574 0.00633049 0.00169373 0.00242615 -0.00028801 0.0134277 0.00425339 0.00334167 -0.00966454 0.00522518 0.220375 0.227037 0.254225 0.235792 0.236231 0.220604 0.247593 0.223684 0.23258 0.257231 0.262855 0.191292 0.20435 0.231871 0.240519 -0.000562668 0.00534058 -0.000394821 0.00631332 -0.00831413 0.0051918 0.243229 0.253763 0.234049 0.23847 0.22835 0.219276 0.219702 0.23758 0.215977 0.239248 0.216476 0.269197 0.244675 0.16098 -0.00714493 -0.00663376 0.0147362 0.00279713 0.00322723 -11.5976 0.242832 -11.5976 -11.5976 -11.5976 0.223284 0.254684 0.245451 0.253094 -11.5976 -11.5976 -11.5976 -11.5976 0.276323 0.218864 0.000917435 -0.00134277 -0.00161743 -0.00409126 0.0124378 0.00481033
-11.5976 -0.00118637 -11.5976 -11.5976 -11.5976 -0.127874 -11.5976 -11.5976 -0.00752831 -11.5976 -11.5976 -0.00451088 0.0993169 -11.5976 0.108924 0.118822 0.131404 -11.5976 0.132453 0.143359 0.170972 0.311789 0.216764 0.0779552 0.0989323 -11.5976 -11.5976 -0.00750351 -0.00665665 0.00421333 -11.5976 -0.00960541 0.218505 -11.5976 -11.5976 -11.5976 -11.5976 0.185604 -11.5976 0.191154 0.196878 0.204863 -11.5976 0.200436 0.208054 -11.5976 -11.5976 -11.5976 -11.5976 -11.5976 -11.5976 -11.5976 0.170509 0.245899 0.26173 -11.5976 -11.5976 -11.5976 -11.5976 -11.5976 -11.5976 -11.5976 -11.5976 -11.5976 -11.5976 -11.5976 -11.5976 -11.5976 0.000829697 -0.0116825 0.00214386 0.00183678 0.000682831 0.00424385 -11.5976 0.00097847 -0.104329 0.0010643 -0.00810051 -0.00660706 0.00301743 -0.00474167 -11.5976 -0.00713348 0.16581 -11.5976 -11.5976 0.231289 -11.5976 -11.5976 0.236221 0.386947 0.260405 0.259502 -11.5976 -11.5976 -11.5976 -11.5976 -11.5976 -0.00279236 -0.00637245 0.000196457 0.00295258 0.00777054 0.132027 -11.5976 -11.5976 -11.5976 -11.5976 -11.5976 0.519432 -11.5976 0.432091 -11.5976 -11.5976 -11.5976 -11.5976 -11.5976 -11.5976 0.000576019 0.00505257 -0.00535011 -0.00296783 -0.00565338 -0.00905418 -0.000768661 -0.00498962 -0.00933456 -0.00352669 -0.00325584 0.00655365 0.0044384 0.0012989 0.00458908 -0.00250626 0.00507736 0.195243 -11.5976 -11.5976 -11.5976 -11.5976 -11.5976 -11.5976 -11.5976 -11.5976 -11.5976 -11.5976 -11.5976 -11.5976 -11.5976 -11.5976 -11.5976 0.00600624 0.00395775 -0.000926971 -0.0161362 -0.0069046 0.226036 -11.5976 -11.5976 -11.5976 -11.5976 -11.5976 -11.5976 -11.5976 -11.5976 -11.5976 -11.5976 -11.5976 -11.5976 -11.5976 0.00194359 -0.00234795 -0.00190353 -0.00466537 0.00160217 0.103049 -11.5976 -11.5976 -11.5976 -11.5976 -11.5976 -11.5976 -11.5976 -11.5976 -11.5976 0.268936 -11.5976 -11.5976 -11.5976 0.24685 -11.5976 0.00722694 -0.00669289 -0.00127602 0.00417328 -0.0129986 -0.0571728 0.00602595 -0.000509262 -0.000952721 0.00251675 0.00126171 -0.00754166 0.0046072 -0.000982285 -0.00123596 -0.00405312 -0.00326157 -0.00258255 0.00259209 0.224501 0.199947 0.27977 0.200483 0.223195 0.243195 0.24674 0.242556 0.246635 0.27096 0.232798 0.248957 0.218401 0.250256 0.235947 -0.0035162 0.000442505 -0.00140572 0.00887299 -0.00405884 -0.0208073 0.258829 0.253438 0.208845 0.249903 0.215336 0.223176 0.22508 0.242751 0.23016 0.268015 0.222109 0.249071 -11.5976 0.115968 -0.00194931 -0.00625992 -0.00489998 -0.00247765 3.62396e-005 -11.5976 0.251575 -11.5976 0.280466 0.227879 -11.5976 0.248283 0.253244 0.255707 -11.5976 -11.5976 -11.5976 -11.5976 0.234322 0.21441 0.0133724 0.00303268 -0.00127792 -0.00281906 0.00191879 -0.00927544
-0.00345421 -11.5976 0.000797272 -11.5976 -0.133574 -0.0062809 -0.0101204 -11.5976 -11.5976 0.00304794 -11.5976 -11.5976 -11.5976 -11.5976 -11.5976 -11.5976 -0.00460243 -11.5976 -0.00660324 -0.000768661 -11.5976 -0.0045414 -0.00372314 -11.5976 -0.000528336 0.00284386 -0.000703812 -11.5976 -0.00590706 -0.00578117 0.00624847 -11.5976 0.25368 0.249935 0.586514 0.0884333 0.260629 0.294553 -11.5976 0.283854 0.287912 0.28976 -11.5976 -0.000694275 -0.00293922 -0.000457764 -11.5976 0.000843048 -0.00044632 0.00110054 0.000537872 -11.5976 0.0666256 -11.5976 0.187468 0.0354118 0.122175 0.209815 0.144803 0.154355 0.17227 0.052166 0.238221 0.162021 0.072794 0.0755444 -0.000665665 -0.00702667 -0.00272751 -11.5976 -0.0150433 -0.00803375 0.00155067 0.00774384 -0.00109673 -11.5976 -0.134974 0.00145912 -0.00225067 0.00858307 -0.00341415 -0.00805855 0.004179 -11.5976 0.206776 0.213032 0.259516 0.258684 0.134922 0.129531 0.138714 0.137775 0.141154 0.157108 0.175364 0.206285 0.224637 0.117132 -11.5976 -11.5976 -11.5976 -0.00775719 -0.00172043 0.000141144 0.140058 0.171601 0.17932 0.0860691 0.170599 0.185917 0.185022 0.247978 0.0907507 0.19404 0.258246 0.102189 0.212606 0.206689 -0.00380707 -0.000488281 -0.00705338 -0.00532532 0.00279999 -0.00234604 -0.00918961 -0.0116234 0.00979996 -0.00618744 -0.00349426 0.0020752 0.00286484 -0.00547791 -0.00828934 -0.00532341 -0.00432777 0.00745964 0.161743 0.138625 0.145721 0.147399 0.138523 0.143656 0.157384 0.149048 0.174592 0.154317 0.149193 0.156769 0.154454 0.133411 0.162675 -11.5976 -0.00122261 -0.0115643 0.0042572 -0.0117168 -0.00746155 0.224089 0.233625 0.237955 0.168191 0.226385 0.236149 0.231979 0.228914 0.231546 0.237491 0.237177 0.237503 0.269871 0.267685 0.0102596 0.0039444 0.00252151 0.00720978 0.00494003 0.099247 0.288986 0.254791 0.2458 0.242281 0.238997 0.243699 0.238575 0.231926 0.235241 0.238628 0.231049 0.241037 0.234735 0.234261 0.00202179 0.00779724 0.00333977 0.000211716 0.0151329 -0.00888062 -0.0604172 -0.000267029 0.00465965 -0.000904083 0.00163651 0.0065937 0.00422525 0.00251579 0.00423813 0.00254345 0.00287056 0.00195694 0.0106859 0.00664711 0.25345 -11.5976 -11.5976 -11.5976 -11.5976 -11.5976 -11.5976 -11.5976 -11.5976 -11.5976 -11.5976 -11.5976 -11.5976 -11.5976 0.231817 -0.00156784 -0.00785637 -0.0044384 0.000574112 -0.00397491 -0.00427628 -11.5976 -11.5976 -11.5976 -11.5976 -11.5976 -11.5976 -11.5976 -11.5976 0.224171 -11.5976 -11.5976 -11.5976 -11.5976 0.024332 -0.00887108 0.000148773 -0.00205231 -0.0014286 0.00019455 -11.5976 -11.5976 -11.5976 -11.5976 -11.5976 -11.5976 -11.5976 -11.5976 0.316681 -11.5976 -11.5976 -11.5976 -11.5976 0.244591 0.21291 -0.00394154 0.00695992 -0.00170326 -0.00138092 0.0033493 -0.0115643
-0.00185204 -0.0109997 -11.5976 -11.5976 -0.00341988 -11.5976 0.000207901 -11.5976 -0.00810051 0.00110626 -11.5976 -0.00459671 -0.00293922 -0.000572205 -11.5976 -0.010006 -11.5976 -11.5976 -11.5976 -11.5976 -0.0103378 -11.5976 -11.5976 -0.00119591 -11.5976 -0.00044632 0.00456619 -0.00172806 -11.5976 0.00385475 0.000617981 -11.5976 -0.00379372 0.00396347 -0.00501442 -11.5976 -0.00522232 -0.00244331 -0.00783348 -11.5976 -0.00212288 0.00408745 -0.0033226 -11.5976 -0.000114441 2.67029e-005 -0.00456619 -11.5976 -0.00695038 0.00922203 -0.00470543 -0.000549316 -11.5976 0.00660515 0.00869942 -11.5976 -11.5976 -11.5976 -11.5976 -0.00819778 -0.00274658 0.00387192 0.0089798 -0.00889015 -11.5976 -0.00227928 0.000814438 -0.00352669 0.00153732 -0.00111961 -11.5976 -0.000169754 -0.00100899 -0.00103951 0.000545502 -11.5976 -0.00311661 -11.5976 -0.012886 -0.00111771 -0.00160217 0.00510979 -0.0024128 -0.006464 -0.00549316 -11.5976 -0.0080452 -0.00898552 -0.00147629 0.00141716 0.00313759 3.51356 3.50943 2.71148 2.54835 2.54517 0.0149269 -11.5976 -0.00914383 0.00215149 0.00107765 -11.5976 -11.5976 -11.5976 0.00312233 -0.00204468 -11.5976 0.00780296 0.00372696 0.00279999 -0.00944328 0.00855637 -0.00215912 -0.00242996 -0.0001297 -0.0142479 0.00273705 0.00301552 0.00163651 -2.67029e-005 0.000411987 -0.00283241 0.00452042 -0.00498581 -0.00248909 -0.00601387 0.000326157 0.00236893 -0.00378418 0.00069046 0.000392914 -0.00172424 -0.00749207 -0.0132179 -0.0036869 -0.00278091 0.00550461 0.41722 0.312083 0.305593 0.308788 0.304357 0.308193 0.304712 0.292509 0.303426 0.305769 0.304286 0.297179 0.304798 0.00639915 -0.0028019 -0.00582314 -0.00375175 0.000587463 -0.00172234 0.313848 0.248381 0.246374 0.213093 0.278813 0.184183 0.238018 0.241001 0.249317 0.236411 0.243749 0.341099 0.220057 0.188769 0.0665646 0.000686646 -0.0101185 -0.00113869 -0.00405884 -0.00928497 0.0779619 0.270508 0.249572 0.252604 0.253197 0.244853 0.251726 0.220718 0.186537 0.342721 0.24983 0.241117 0.249788 0.250185 0.0830294 -0.0115652 0.0106602 0.0111771 0.00198364 -0.00188065 0.00564194 -0.065629 -0.00407982 -0.00162315 -0.0017643 -0.0046463 0.0111599 0.0015831 0.000844002 0.00637341 -0.00161743 0.00158787 0.00126266 -0.00177701 0.00103188 0.151026 0.14038 0.299724 0.275904 0.208873 0.255082 0.233891 0.227957 0.237156 0.184249 0.267651 0.224986 0.224382 0.230062 0.125379 -0.00452137 -0.00886726 0.00107574 -0.00974655 -0.000324249 -0.017395 0.15985 0.242412 0.192371 0.18503 0.180178 0.13481 0.182832 0.209917 0.170235 0.153839 0.168707 0.134534 0.263619 0.262982 -0.0092659 -0.0103321 -0.00463676 0.00328445 0.000408173 0.104391 0.181633 0.153985 0.161268 0.148787 0.138187 0.118951 0.130006 0.152489 0.237786 0.178712 0.219724 0.215523 0.221847 0.211309 -0.000473022 0.00850582 0.00352414 -0.000432968 -0.00112915 0.00226974
-11.5976 -0.00144577 -11.5976 -0.00400352 -11.5976 -0.0556641 -0.00423241 -0.00474548 -11.5976 -0.000230789 -0.00778198 -11.5976 -0.00285721 -0.00359917 -11.5976 -0.0077343 -0.00418854 0.000507355 -11.5976 -0.000188828 -11.5976 -11.5976 0.000892639 -11.5976 -11.5976 -11.5976 -11.5976 -11.5976 -0.00101089 -11.5976 0.000600815 -0.00396919 -11.5976 -0.00756073 0.00478554 0.00115013 -11.5976 0.00409317 -0.00113678 -0.00523758 -11.5976 -0.00758743 -0.00441551 -0.0019722 -11.5976 -0.00352669 -0.00517273 -0.0031929 0.00146866 -11.5976 0.00123405 -0.000665665 0.00524139 -11.5976 0.0043869 -0.00357819 0.00264549 -0.00863075 -11.5976 -11.5976 -11.5976 -11.5976 -11.5976 0.00203514 -11.5976 -11.5976 -0.00474548 0.00242996 0.00144005 -0.000453949 0.00191498 -11.5976 -0.00312996 -0.00982475 -0.00031662 -11.5976 -0.0742531 0.00508118 -0.000892639 -11.5976 -0.00945282 -0.00257874 -0.00310707 -0.00372124 -0.00602341 -0.00218964 -0.00624084 0.0113716 -11.5976 -0.000968933 2.54453 2.54264 2.54507 2.54944 -0.0046711 2.54519 -0.000671387 -0.0104294 -0.00176239 0.0018158 0.00357056 -11.5976 0.000267029 -0.00110435 -11.5976 -11.5976 -3.14713e-005 -0.00496101 -0.00203896 -0.00187302 0.00112724 0.00218582 -0.00278473 -0.0114307 -0.0103779 -0.00601578 0.00337029 -0.00832367 -0.00380135 0.00836945 0.00990105 -0.00498772 -0.00867271 -0.00403214 0.00202751 0.00784492 -0.0025959 0.00518799 -0.00298882 0.00662422 -0.00625229 -0.000761032 -0.000785828 -0.000731468 4.76837e-005 6.67572e-005 0.0019989 0.00103951 0.000286102 -0.00369263 -0.00294495 0.00920486 -0.00845337 -0.00257492 0.00568581 0.00218391 -0.0056076 0.00094986 -0.0019474 0.00130558 -0.000335693 -0.0127869 -0.00359154 0.000343323 -0.00790405 0.00330544 -0.00797081 -0.00691414 -0.00796127 -0.00479889 -0.0053463 -0.0124855 -0.0103378 -6.10352e-005 -0.00263977 -0.0129166 0.0004673 0.00269508 -0.00725365 -0.00393867 -0.00547791 0.0049572 -0.00678253 0.00608635 -0.000720978 -0.010601 0.00539207 -0.00758171 -0.00357819 0.00111008 0.0016346 -0.00165176 -0.000694275 -0.00187302 0.000528336 0.00206947 0.00857353 0.0151138 -0.00982666 0.00769615 -0.00761795 0.00357628 -0.00602722 -8.58307e-005 -0.000257492 -0.00225258 0.00385094 -0.0689573 0.00546455 0.00047493 -0.00618362 0.00769234 0.00239944 0.00602722 -0.0102997 -0.000802994 -0.00696754 -0.0144348 -0.000481606 0.00399971 0.00331116 -0.00311661 0.315167 -0.00354195 0.214409 0.00750923 0.00785637 0.0180817 -0.00145721 0.00168991 0.00561905 -0.00232506 -0.00141335 -0.00512314 0.0168056 -0.0060482 -0.00717068 -0.00104713 0.00423431 -0.00286293 -0.000888824 -0.012207 0.00464153 0.0053196 0.00117874 -0.00259972 0.00268555 0.00455856 0.0141697 0.000711441 -0.00772858 0.000190735 0.0101433 -0.00587082 0.00327492 0.014061 -0.00641823 0.0053997 -0.00239563 0.00722122 -0.000308037 0.00888062 0.315547 0.31724 0.315341 0.314484 0.307089 0.249601 0.311597 0.374723 0.292095 0.0103312 0.00431824 0.00320435 0.000730515 0.00299454 -0.00479126 -0.00431252 -0.0067482 0.00999832 -0.00139427 0.00771713
-11.5976 -11.5976 -0.00457382 -11.5976 -11.5976 -0.0584545 -11.5976 -0.00733185 -0.0112095 -11.5976 -0.00895309 0.00671577 -11.5976 -0.00367737 -0.00498581 -11.5976 0.00118828 -0.00359917 -11.5976 -0.00304604 -0.00479507 -11.5976 -0.0081749 -0.00404739 -0.00842667 -11.5976 -0.00466156 -0.0022316 -11.5976 -11.5976 -11.5976 -0.0172329 -0.000593185 -11.5976 -0.00940514 -0.00246811 -0.00496864 -11.5976 -0.00256348 -0.0105419 -0.00743675 -11.5976 0.000705719 -0.01054 0.000669479 -11.5976 -0.00440979 -0.00723076 0.000537872 0.00543594 -11.5976 -0.00688362 -0.0140247 0.00455475 -11.5976 -0.00838089 -0.00619698 0.00337791 0.00288582 -11.5976 0.00118446 0.00577736 -0.00373459 -11.5976 0.0100594 -11.5976 -11.5976 -0.00684166 -0.00161362 0.00320625 -0.00703621 0.00130272 -0.00462532 -11.5976 0.00302505 -11.5976 -0.0587683 -0.00494766 -0.00328636 -0.00687599 -11.5976 -0.00310707 0.00460243 -0.00938797 0.00572586 -0.00753021 0.00366211 -0.00329971 0.00614738 0.00350189 -11.5976 2.54577 0.00489616 0.00116348 2.544 -0.00941086 -0.0093956 0.00275421 0.00350189 0.0030365 -0.00919342 -0.0104733 -0.0106277 -11.5976 0.008358 -11.5976 -0.00203705 -0.00409126 -11.5976 -0.00319386 -11.5976 -0.00281334 0.0015564 -0.00227928 -0.00231552 -0.00757599 -0.00955391 -0.00413895 -0.0114212 -0.00608063 -0.00936317 0.00805092 -0.00836945 0.00403976 -0.00728798 0.0100136 -0.000102997 -0.00335312 -0.00732422 -0.00673103 -0.00357819 -0.00419044 -0.00384521 -0.00410652 0.00473213 -5.72205e-005 0.000453949 0.00184631 -0.0118103 0.00378609 0.00190544 0.00115204 -0.00299263 -0.0154381 -0.0022049 0.000806808 -0.000915527 -0.00928307 -0.00557804 -0.00253677 0.00156784 0.00170135 -0.00589371 0.000225067 0.0103054 -0.00162315 -0.0032692 -0.000188828 0.00138855 -0.00523758 -0.0112686 0.0038662 -0.00640106 -0.000171661 0.00703812 -0.000284195 -0.00894928 -0.00873947 -0.00548077 -0.0128651 -0.00279427 -0.00850105 -0.00300598 -0.001791 -0.00268745 -0.00309563 -0.0100069 0.0019455 -0.00319672 0.00691414 -0.00405121 0.00135994 0.00402451 -0.000353813 -0.00320244 0.00213242 -0.000833511 0.00570869 -0.0123882 0.00683022 0.00462914 -0.00429344 -0.000537872 -0.00111008 -0.00237465 0.00121307 0.00173187 -0.0830154 -0.0041008 0.00240135 0.00489616 0.00448608 0.00409126 -0.000583649 0.00357819 -0.00307846 0.0114021 -0.000717163 0.00452042 0.00506401 0.00136185 0.00451088 0.00291252 0.000523567 0.000162125 -0.00409698 -0.0105267 0.00791931 0.00202751 0.00330734 -0.00152683 -0.00613022 0.000207901 -0.00164032 0.00275803 0.011404 0.000808716 -0.0068779 0.00306511 -0.0068264 -0.00392151 0.00315857 -0.00299835 0.0142345 0.00790405 0.00692368 -0.00144005 0.00247192 0.00468826 -0.00621033 0.0100231 0.012352 0.0123787 -0.00286484 0.000556946 0.00396347 -6.77109e-005 0.00172043 -0.000806808 0.00135612 -0.00414753 0.000547409 0.0160885 0.0025444 0.0042305 0.00734711 0.00588036 0.0140413 0.00948429 0.00445175 0.0149364 0.00282955 0.000761032 0.00881195 0.0171967 0.0020752 0.0150719 -0.00150299 0.00407505 0.00314967 0.0014267 -0.0018692
-11.5976 -0.00218201 -11.5976 -11.5976 -11.5976 -0.131369 -0.00185013 -11.5976 0.00222588 -0.00657463 -11.5976 -0.00568008 -0.00642014 -11.5976 -0.00866508 -0.00761223 -11.5976 -0.00912666 -0.0104351 -11.5976 0.00276184 -0.00529861 -11.5976 -0.00286865 -0.00522423 -0.0104656 -11.5976 -0.00835228 -0.00402069 -11.5976 0.00304413 -11.5976 -11.5976 -11.5976 -11.5976 -11.5976 -0.00684166 -0.000873566 -11.5976 -0.000125885 -0.00247765 -0.00131798 -11.5976 -0.0103817 -0.00539207 0.00229454 -11.5976 -0.0101795 9.91821e-005 0.00063324 0.000917435 -11.5976 0.0012455 0.00395584 -0.00570869 -11.5976 -0.00865173 -0.00279808 -0.00268173 -0.00421715 0.000219345 -11.5976 0.000200272 -0.00320053 0.00575638 -0.00359535 -11.5976 -11.5976 -11.5976 -0.00873375 0.00296783 -0.00191116 -0.00969505 -0.00422478 -11.5976 -0.00909996 -0.0941582 0.0105171 0.000663757 0.00345993 7.24792e-005 2.86102e-005 -11.5976 -0.00385666 -0.00506973 -0.00248337 0.00187302 -0.00164795 0.00529289 0.0099659 -0.00491142 0.00142288 -11.5976 -0.0153675 -0.00413895 -0.00681877 0.01231 -0.0134487 0.0051651 0.00284004 0.0024147 -0.00181389 -0.0125179 0.00119972 -0.0010128 0.00134277 -11.5976 -11.5976 -11.5976 -0.00155258 -11.5976 -0.00344276 -0.00214005 0.000171661 0.00283623 -0.00411224 0.00348473 -11.5976 -5.62668e-005 -11.5976 0.000823975 0.00221062 0.0015583 0.00111008 -11.5976 -0.0100136 -0.00598621 0.0029335 -3.05176e-005 -0.0102749 -0.011301 -0.00836372 -0.00988007 -0.000513077 0.005373 0.00943756 -0.0103912 0.00232506 0.00561905 -0.00830841 -0.00505257 -0.00689888 0.00792694 -0.008564 -0.00899696 0.00752258 0.00208282 -0.00420761 -0.0040741 0.00341606 0.00905609 0.00671959 -0.00196457 -0.00361252 -0.00408554 0.000608444 -0.000431061 -0.00277138 0.00380898 -0.0116978 -0.010891 0.00019455 -0.0044899 0.00113487 0.00320625 -0.00209236 -0.00764275 -0.00294113 -0.00914764 -0.00876236 0.00224113 -0.00735664 0.00389481 -0.00529289 0.00327873 -0.00481987 0.00831985 -0.00280952 -0.00143433 0.00714111 0.00733948 -0.0060215 -0.00522232 0.00328922 -0.0126076 -0.000753403 -0.00279045 -0.0113029 0.0035038 0.00784206 0.0044899 -0.000339508 -0.00994301 0.000211716 0.00700569 -0.00260162 -0.00185013 -0.107601 -0.00030899 -0.00436783 0.00792694 -0.00179863 0.0022192 0.0171814 0.0008564 -0.00207329 -0.000463486 0.0075779 0.00319862 0.00498009 0.0217628 -0.000236511 0.00347137 0.000692368 0.009854 -11.5976 0.000501633 0.00921059 0.00177956 -0.00916195 0.00256157 -0.00297356 0.00243187 -0.00188446 -0.00230598 -0.0044384 -0.0064888 -0.00744247 0.0023365 -0.00771523 0.00263786 -0.00137329 0.0111771 0.00528526 0.0043869 0.00992012 0.00387001 -0.0103645 0.00542259 -0.00539398 0.00431633 0.0066452 0.00590515 -0.0121307 0.00570869 -0.000864029 0.00426102 0.00442886 9.53674e-006 0.00140572 -0.00905991 0.0026207 -0.00139999 0.000404358 -0.0020752 0.0126648 0.00577354 0.00395266 0.0118484 0.00681496 0.0118732 0.000694275 0.0147552 -0.00681305 0.00481224 0.0087719 0.0092144 0.00690079 -0.0100861 -0.00235558 -0.0120449 0.0060463
-0.0021553 -11.5976 -0.00640297 -11.5976 -0.141748 -0.00663185 -11.5976 -11.5976 -11.5976 -11.5976 -11.5976 -11.5976 -0.00447655 -11.5976 -0.0163708 -0.00861168 -0.00156784 -11.5976 -0.00521851 -0.00586891 -11.5976 -0.00908279 -0.00462723 -11.5976 -0.00589371 -0.00802994 -0.00449944 -11.5976 -0.000326157 -0.0102215 -11.5976 -0.0155544 -0.00234604 -0.003685 -11.5976 -0.00264359 -11.5976 -11.5976 -11.5976 -11.5976 -11.5976 -11.5976 -0.00138474 -11.5976 -0.00168228 -0.0103111 0.00226212 -11.5976 -0.00971985 -0.00232315 -0.00328827 -0.0020256 -11.5976 0.000232697 -0.0105095 0.000846863 0.00560951 -11.5976 0.00496292 -0.000934601 0.00382614 0.000699997 -11.5976 0.00133705 0.00111961 0.00235748 -0.00508499 -11.5976 -0.00918961 -11.5976 -11.5976 -11.5976 -11.5976 -0.0050869 -0.0119858 -11.5976 -0.122211 0.00343132 -0.00718689 -0.0042305 0.0004673 -0.00191498 -0.00252914 2.53943 5.0978 -0.00285339 -0.00253296 0.0108757 -0.00501823 -0.00547028 0.00793648 -0.00407791 2.53996 5.1019 2.53216 -0.00281906 -0.00389481 0.0135593 -0.0042038 -0.00806808 0.00735664 -0.00884247 -0.00835037 -0.00768661 -0.00382996 0.00333786 0.000116348 -0.00706673 -0.000513077 -0.00639153 0.00634003 0.00199127 0.00701523 -0.000782013 2.09808e-005 7.24792e-005 0.0017662 -0.00567436 -0.00826073 -0.00361633 -0.00592995 -0.00617409 -0.000759125 0.00671959 0.0021019 0.00767517 -0.0177746 0.00263977 0.00246429 -0.00527382 -0.00180244 -0.000890732 0.00535583 0.000125885 0.00322342 -0.00452232 -0.00259399 -0.00572395 0.00253868 -0.0121555 -0.000526428 -0.00981331 -0.00214767 -0.0048008 -0.00225353 -0.00115967 0.00710297 -0.000606537 -0.00884438 -0.00244522 -0.00813103 -0.00799751 0.00196075 0.000482559 -0.00217819 -0.00634384 0.00644875 -0.00108242 0.00295639 -0.00606537 -0.000123978 8.39233e-005 0.00146866 -0.000995636 0.000627518 -0.00111008 -0.000144958 0.00379276 -0.00846672 0.00152969 0.00152588 -0.00511551 -0.00863457 0.00221062 0.00349426 -0.00662231 0.00667763 -0.0118961 -0.00696182 -0.00336647 -0.00392914 -0.000213623 0.0017786 0.0017128 0.000648499 -0.000530243 0.00969887 -0.0110798 -0.00776672 0.0023222 -0.00195885 0.0034523 0.00238609 0.00849915 0.00241661 0.002285 0.00202274 -0.112317 0.00332642 -0.00429153 0.000225067 0.00369835 0.00407314 0.00684929 -0.00311661 -0.0134926 5.72205e-005 0.00671959 0.00264645 -0.00101471 0.00119209 0.0138092 0.00152397 0.00696564 0.00723457 0.00409603 0.0036335 0.0113325 -0.00456142 -0.00969315 -0.00676409 -0.0032177 0.00405121 -0.000751495 0.00907135 0.00455284 0.00614738 -0.00675392 0.0056591 0.00678253 -0.00801086 0.00877285 0.00348473 -0.0117207 0.00629425 -0.00259018 -0.00366592 0.00815201 0.00554752 -0.00441742 0.00266266 0.00158691 -0.00134087 -0.00200272 -0.00501823 -0.0068531 0.000741959 -0.00854301 0.000143051 0.00919533 -0.00324059 0.00015831 0.0136757 -0.00282288 0.0007267 0.00757027 -0.00195694 0.0041256 0.00790405 0.00791931 0.0139122 0.00799847 0.00391006 0.00373268 -0.00587273 -0.0034523 0.00363922 -0.00333977 0.00402832 0.0170288 0.00183105 -0.00122643
-0.00741577 0.00452423 -11.5976 -11.5976 -0.00611305 -11.5976 -0.00226402 -11.5976 -0.0025425 -0.0122662 -11.5976 -0.00653076 -11.5976 -11.5976 -11.5976 -11.5976 -11.5976 -11.5976 -0.00888634 -0.00206757 0.00312042 -11.5976 -0.00284195 -0.00301552 -11.5976 -0.00280571 -0.00675201 -11.5976 -0.00722313 -0.00560188 -0.0101624 -11.5976 -0.0019207 -0.00216484 -0.00205421 -11.5976 -0.00112534 -0.00448227 -0.00482368 -11.5976 -0.00280952 -0.00165558 -11.5976 -11.5976 -11.5976 -11.5976 -11.5976 -0.00535965 -11.5976 -0.00963211 -0.00497818 -0.000768661 0.00678825 -11.5976 -0.0132923 -0.0079937 -0.00852013 -11.5976 -0.0110226 0.000812531 0.000118256 -0.00704575 -0.00204086 -11.5976 -0.000234604 0.00488091 -0.0020771 0.00206184 -0.00758171 -11.5976 -0.0134583 0.0152435 -0.00155258 -11.5976 -11.5976 -11.5976 -0.0653028 -11.5976 -0.00493813 0.00780106 -0.0168781 -0.00261307 2.54427 -0.00520134 3.22275 4.87627 3.4544 -0.00674438 -0.00461578 2.01249 2.55112 2.46589 3.68242 3.79066 2.54414 3.57682 4.2291 2.30926 2.78664 1.8688 -0.0048008 -0.00466728 -0.00341034 0.0114079 2.09808e-005 -0.0126991 0.00522423 -0.00988388 0.00738335 -11.5976 0.000577927 -11.5976 0.00294685 -0.00593948 -0.00901604 0.00392914 -0.000278473 0.000205994 0.000736237 -0.00844765 -0.00190544 0.0126095 -0.00761223 0.0107422 0.00115585 -0.0067749 0.00287056 -0.0101147 -0.00329018 -0.00528526 -0.00242424 -0.00943375 -0.00225639 -0.000652313 -0.0132446 0.00372314 -0.000257492 0.00546646 0.00301933 -0.00127983 -0.0177612 -0.00358772 -0.00121307 0.00284958 -0.00764847 0.00320816 -0.0118256 -0.00461006 -0.000270844 -0.0104961 0.00275421 0.00506973 -0.00329018 0.00266457 -0.00930023 5.53131e-005 -0.00858688 -0.0150948 -0.0126953 -0.00634384 0.00316048 -0.00128174 -0.00859642 -0.00903893 0.00128174 0.00336838 0.0027504 -0.00829315 -0.010601 -0.00230026 -0.00634956 0.00983047 0.00537872 0.00731945 0.00545502 -0.00139046 0.000341415 -0.00564766 -0.00552559 0.00195694 0.00450516 -0.00327301 -0.00360203 -0.00134468 -0.00519753 0.00370026 0.0057106 0.00464821 -0.000579834 -0.000430107 0.0109787 0.00505638 -0.00547981 -0.00123405 0.00199699 0.000888824 -0.00135612 -0.120916 0.00214005 0.0101833 0.0130062 0.00644779 -0.00323296 0.00813484 -0.00118637 0.0030117 -0.00408554 0.00784683 -0.00119019 0.00306511 0.00680923 0.00128937 -0.0027771 -0.00227547 0.00361824 0.002388 -0.00361824 0.00364876 -0.00300789 -0.00390434 -0.00248718 0.000668526 0.00627518 0.0109539 0.00478363 0.000341415 0.000926971 -0.000799179 -0.000495911 -0.00107384 0.00693703 0.00130272 0.00539207 -0.000658035 0.000465393 0.0112648 -0.00624847 0.000905991 0.00172424 -0.0017395 0.00550079 -0.0058136 0.00600052 0.00254059 -0.00258064 0.00745201 0.00293922 0.000335693 0.0112972 -0.000901222 0.00154114 0.00524139 0.00951576 -0.011158 0.000291824 0.0145855 -0.00145721 5.72205e-005 0.00196203 -0.00523567 0.00136185 0.00475311 0.00380421 0.0065403 0.00779533 0.00369263 0.00380898 0.0093956 0.0021801 -0.00884819 0.000342051 0.00590515
-11.5976 0.00018692 -11.5976 -0.0102177 -0.0300655 -11.5976 -0.000211716 -0.00141716 -11.5976 -0.00569534 -0.0029068 -11.5976 7.82013e-005 -0.0052681 -11.5976 -0.00203133 4.95911e-005 -11.5976 -11.5976 -11.5976 -11.5976 -11.5976 -11.5976 -0.00417709 -0.00379753 -11.5976 -0.0108509 -0.00385284 -11.5976 -0.00441551 -0.00974083 -0.0133266 -11.5976 -0.0093689 -0.00691223 -0.00473213 -11.5976 -0.00514221 -0.00221252 -0.000192642 -11.5976 -0.000730515 -0.0208244 -0.00512123 -11.5976 0.000875473 0.00536537 -11.5976 -0.00745201 -11.5976 -0.00917625 -0.00044632 -0.00456238 0.000402451 -11.5976 -0.00734329 -0.00507927 -0.00152588 0.00332832 -11.5976 -0.00839424 0.00185776 0.00189209 -0.00252342 -11.5976 -0.00782967 0.00775528 -0.00519753 -0.000696182 -0.00842667 -11.5976 0.00193024 -0.0137691 -0.00300598 -0.00197792 -11.5976 -0.138567 -11.5976 -11.5976 -0.000371933 -0.00578117 0.00739479 0.00662231 -0.0063858 0.00570107 0.000722885 -0.00574684 -11.5976 -0.00344849 -0.00204659 2.02842 -0.00436211 -0.00574875 -0.0046196 0.00126648 -0.00587082 2.03373 2.17589 0.00503922 4.07528 -0.00391579 0.00164604 -0.00408936 0.0028038 -0.00126648 0.00388527 -0.00414467 -0.0111694 -0.00865555 -0.00860405 0.00022316 0.000713348 -0.00702095 -0.00984764 -11.5976 0.00609207 0.00248909 -0.0075798 -0.010931 -0.0016346 -0.00564384 -0.0029335 -0.00544548 -0.00108147 0.00753212 0.000204086 -0.00146675 -0.00171852 0.00292206 0.00667191 0.00363159 0.00563622 -0.00287437 0.00884628 -0.00281906 -0.00372887 -0.0126781 -0.00662994 0.00830841 -0.00545311 -0.00374222 -0.00971603 0.00113487 -0.0140572 -0.00590897 -0.00500107 0.00325966 -0.00505447 -0.0162468 0.0101776 0.00388527 -0.00593185 -0.00620651 -0.00117111 -0.0019474 0.000152588 0.000286102 0.0020237 -0.00723076 0.00596428 -0.00548744 -0.00139236 0.00201416 -0.00712776 -0.00954819 -0.000926971 -0.00201225 -0.00653839 -0.0038681 -0.00350189 -0.00459671 0.00753784 0.000457764 -0.00923729 0.00349045 0.00222778 0.00133133 -0.000165939 0.000284195 -0.00356865 0.00889778 0.00540543 -0.0116768 0.00600052 -0.00141335 0.00376701 0.00282288 -0.00366783 0.00739479 -0.0124702 0.00310898 0.00572777 0.00514603 0.00069809 0.00485802 -0.00114822 0.0069294 -0.126921 0.00391197 -0.00294304 0.00141716 -0.00342083 0.00303268 0.00601959 -0.000835419 -0.00468636 -0.00153923 0.00666809 -0.00320625 0.00762939 0.00826073 0.00071907 -0.0067482 0.00352859 -0.0016098 -4.76837e-005 0.000629425 0.000284195 0.00075531 0.00127411 0.00597509 0.000501633 0.000461578 -0.00255489 -0.00344467 -0.00148487 -0.00259972 -0.00371742 0.00853539 -0.00289726 -0.00108147 0.00436306 -0.00404358 0.00634766 -0.00694656 0.00758171 -0.00126457 0.00171471 -0.000641823 0.00604057 0.00785637 0.00289726 0.00818634 0.000236511 0.000235558 -0.00307274 0.00063324 -0.0120544 0.00696754 0.00309753 0.00434113 0.00582314 -0.00595093 -0.00616646 0.00094986 0.00576591 -0.0127468 -0.000841141 0.00235303 0.00859261 -0.000932693 0.00569534 0.00669479 -0.00227928 -0.00908661 0.0159435 0.0100212 -0.00517273 -0.00307274 0.00680351 0.00230789 -0.00166988
-11.5976 -0.00664711 -0.00801086 -11.5976 -11.5976 -0.0556345 -11.5976 -0.000133514 -0.00424576 -11.5976 -0.00084877 -0.00468636 -11.5976 -0.00877762 -0.0126934 -11.5976 -0.00564003 -0.00694275 -11.5976 -0.00960732 -0.00240326 0.00019455 -11.5976 -11.5976 -11.5976 -11.5976 -11.5976 -0.00157356 -0.0200214 -11.5976 -0.00839424 0.000785828 -0.00458527 -11.5976 -0.000429153 -0.0105209 -0.00127792 -11.5976 -0.00254631 -0.00440407 -11.5976 -0.00417137 0.00263786 -0.0100994 -11.5976 -0.011734 -0.00631142 -0.00754166 -11.5976 -11.5976 -11.5976 -11.5976 -11.5976 -0.00303078 -0.000352859 -11.5976 -0.00524139 0.00143051 -0.0038166 0.00279999 -11.5976 -0.00326538 -0.000284195 -0.000333786 -0.0012722 -11.5976 -0.00746536 -0.00502396 -0.00362396 0.00791359 -0.00564575 0.00289345 -11.5976 -0.00358582 0.00474739 -11.5976 -0.0688019 0.00583839 -11.5976 -11.5976 -11.5976 -11.5976 -0.0125809 0.00177002 0.0020504 0.00298309 -0.012661 -0.0122204 -0.00475693 -11.5976 0.00275803 0.010025 -0.0131035 0.00341797 -0.00532341 0.00185204 2.67029e-005 -0.0102558 -0.00247383 -0.00956535 0.00346565 -0.000240326 0.00463104 -11.5976 0.00569725 0.00680351 0.000635147 0.00465202 -0.00387383 0.00131416 -0.00833511 -0.0143909 -11.5976 -11.5976 0.00494766 -0.00109673 -0.00562096 -0.00109482 -0.00444221 -0.00383759 -0.00784683 -0.00606728 0.0071125 -0.00979233 0.00363159 -0.00959778 -0.00273895 0.00214577 0.0115986 -0.00887299 -0.0130024 0.00966835 -0.00195503 -0.000797272 -0.00485229 -0.00855446 -0.000555038 -0.00187778 -0.00157738 0.000585556 0.0020256 0.00115776 -0.010355 0.00365067 -0.00760841 -0.00468063 -0.00309181 -0.00473213 -0.00241661 0.00305557 -0.00060463 0.000303268 -0.00571823 -0.00729465 -5.91278e-005 -0.00433731 -0.00311279 -0.00525284 0.00475311 -0.00580597 -0.00609016 0.00468063 -0.00946808 -0.0038414 -0.00425816 -0.00298309 -0.00742722 -0.0127182 0.00686455 -0.007658 -0.00316811 -0.0107422 0.00235367 -0.00103378 0.00119972 0.0114307 -0.00561523 0.00405693 -0.00961304 0.00717163 0.000778198 -0.0116997 0.00125313 -0.00465965 -0.00681686 0.00131416 -0.00412369 -0.00361061 -0.000497818 0.00884056 0.000827789 0.00793457 -0.00025177 0.0083313 0.00653267 0.0038929 0.00557518 -0.144094 0.00409698 0.0130711 -0.00288963 -0.000905037 -0.00592613 -0.00293732 -0.00699615 -0.00170708 -0.00693703 0.00228786 0.000873566 -0.00597954 0.010479 0.00107193 0.00133896 -0.00520229 -0.0104027 0.00294113 -0.00415421 -0.000614166 -0.000141144 -0.00383663 0.00407219 0.00147057 -0.00321198 -0.000555038 -0.00579643 -0.00361061 0.000398636 0.000209808 0.0105991 0.0100212 0.00531769 0.00572109 -0.000112534 0.0102787 -0.00241089 0.00280571 -0.00835037 -0.00799942 -0.00185204 0.0098114 0.00587654 -0.000946045 0.00605011 -0.0108986 0.000344276 0.0020752 0.00315666 0.00115776 0.00778389 0.00063324 0.0022049 0.00305557 -0.000266075 -0.0115871 -0.0116005 0.00314331 1.1328 0.820458 0.626751 1.11422 -0.000156403 1.1264 -0.00423431 1.70737 2.24039 1.83701 1.83243 2.1012 2.00605 -0.00234222 0.0010643 -0.000986099
