# .PCD v0.7 - Point Cloud Data file format
VERSION 0.7
FIELDS x y z
SIZE 4 4 4
TYPE F F F
COUNT 1 1 1
WIDTH 1858
HEIGHT 1
VIEWPOINT 0 0 0 1 0 0 0
POINTS 1858
DATA ascii
21.318001 -15.406 0.20299999
21.277 -15.377 0.111
21.253 -15.359 0.017999999
21.219999 -15.336 -0.072999999
21.200001 -15.322 -0.164
21.165001 -15.296 -0.25600001
21.141001 -15.28 -0.347
21.110001 -15.257 -0.43799999
21.079 -15.235 -0.528
21.052 -15.215 -0.61799997
21.025999 -15.197 -0.70899999
21.000999 -15.179 -0.79799998
20.975 -15.16 -0.889
20.941999 -15.135 -0.977
20.914 -15.115 -1.066
20.889999 -15.098 -1.156
20.863001 -15.079 -1.245
20.833 -15.057 -1.334
20.951 -15.143 -1.432
20.957001 -15.147 -1.522
20.933001 -15.13 -1.612
20.91 -15.114 -1.701
20.907 -15.112 -1.7920001
20.888 -15.098 -1.88
20.864 -15.081 -1.969
20.916 -15.119 -2.0650001
20.809999 -15.043 -2.145
20.768 -15.012 -2.2309999
20.754999 -15.002 -2.3199999
20.771999 -15.014 -2.4119999
20.750999 -14.999 -2.5009999
20.716999 -14.975 -2.586
20.698 -14.961 -2.675
20.646999 -14.925 -2.848
20.614 -14.901 -2.934
20.573 -14.872 -3.0179999
20.554001 -14.858 -3.1059999
20.533001 -14.843 -3.1930001
20.5 -14.82 -3.277
20.488001 -14.812 -3.3659999
20.441999 -14.779 -3.448
20.41 -14.755 -3.533
20.382999 -14.735 -3.618
20.311001 -14.683 -3.6949999
20.079 -14.516 -3.7420001
20.049999 -14.495 -3.8239999
20.027 -14.479 -3.9089999
19.999001 -14.459 -3.9920001
19.981001 -14.446 -4.0770001
19.945 -14.42 -4.1589999
19.914 -14.398 -4.2399998
19.903999 -14.391 -4.3270001
19.875999 -14.372 -4.4099998
19.849001 -14.352 -4.4920001
19.818001 -14.33 -4.5739999
19.799999 -14.318 -4.658
19.76 -14.287 -4.7379999
19.749001 -14.28 -4.8239999
19.714001 -14.255 -4.9029999
19.688999 -14.237 -4.9860001
19.663 -14.219 -5.0679998
19.645 -14.206 -5.152
19.620001 -14.188 -5.2340002
19.593 -14.169 -5.3150001
19.740999 -14.276 -5.4460001
19.742001 -14.277 -5.5349998
19.691999 -14.242 -5.79
19.606001 -14.179 -5.9450002
19.584999 -14.164 -6.0279999
19.556 -14.144 -6.1090002
19.542999 -14.135 -6.1950002
19.617001 -14.189 -6.309
19.59 -14.169 -6.3909998
19.516001 -14.116 -6.4569998
19.482 -14.092 -6.5359998
19.490999 -14.099 -6.6300001
19.466999 -14.082 -6.7129998
19.393999 -14.03 -6.7779999
19.431 -14.057 -6.881
19.4 -14.034 -6.961
19.361 -14.007 -7.0380001
16.573 -11.993 -6.1030002
15.878 -11.49 -5.921
15.64 -11.317 -5.9060001
15.572 -11.269 -5.954
15.476 -11.199 -5.9910002
15.369 -11.122 -6.0229998
15.279 -11.058 -6.0599999
15.215 -11.012 -6.1069999
15.108 -10.935 -6.1370001
15.05 -10.893 -6.1849999
15.027 -10.877 -6.2480001
14.98 -10.843 -6.3010001
14.937 -10.813 -6.355
14.971 -10.838 -6.5149999
14.901 -10.787 -6.5570002
14.883 -10.774 -6.6220002
14.896 -10.784 -6.6999998
14.951 -10.824 -6.7979999
14.978 -10.844 -6.8839998
15.012 -10.869 -6.974
15.063 -10.906 -7.072
17.143999 -12.411 -8.1350002
16.695 -12.086 -8.0050001
15.6 -11.295 -7.5570002
15.023 -10.878 -7.3530002
14.454 -10.467 -7.1469998
13.873 -10.047 -6.9289999
13.335 -9.6590004 -6.7280002
12.938 -9.3719997 -6.592
12.544 -9.0869999 -6.4549999
12.454 -9.0220003 -6.4720001
12.36 -8.9540005 -6.4860001
11.959 -8.665 -6.3369999
11.57 -8.3839998 -6.1900001
11.203 -8.118 -6.0510001
10.852 -7.8649998 -5.9180002
10.551 -7.6469998 -5.8080001
10.248 -7.4289999 -5.6950002
10.018 -7.263 -5.619
25.559 -18.351999 13.828
25.525 -18.327 13.679
25.469999 -18.287001 13.52
25.416 -18.247999 13.36
25.368999 -18.214001 13.207
25.313 -18.174 13.048
25.274 -18.146 12.901
25.236 -18.118 12.755
25.191999 -18.086 12.605
25.141001 -18.049 12.454
25.089001 -18.011999 12.301
25.042 -17.978001 12.154
24.999001 -17.947001 12.009
24.958 -17.915001 11.864
24.909 -17.879999 11.718
24.858 -17.843 11.571
24.823 -17.818001 11.433
24.777 -17.785 11.29
24.725 -17.747 11.145
24.681999 -17.716 11.005
24.643999 -17.688999 10.868
24.604 -17.66 10.731
24.563 -17.629999 10.594
24.51 -17.591999 10.452
24.473 -17.565001 10.319
24.431999 -17.535999 10.183
24.389 -17.504 10.049
24.341999 -17.469 9.9130001
24.306999 -17.444 9.7819996
24.253 -17.405001 9.6450005
24.216 -17.378 9.5139999
24.183001 -17.354 9.3870001
24.139 -17.323 9.2559996
24.17 -17.344999 9.1529999
24.313 -17.447001 9.0930004
24.339001 -17.466 8.9879999
24.525 -17.599001 8.9420004
24.495001 -17.577 8.816
24.445999 -17.542 8.684
24.427 -17.528 8.5629997
24.365 -17.482 8.427
24.041 -17.249001 8.2040005
25.445 -18.256001 8.566
25.438 -18.250999 8.4449997
25.452 -18.26 8.3319998
23.642 -16.962999 7.6300001
23.597 -16.931 7.507
23.566 -16.908001 7.3889999
23.538 -16.888 7.2719998
23.49 -16.853001 7.1500001
23.457001 -16.83 7.033
23.427 -16.808001 6.9169998
23.375 -16.771 6.7950001
23.34 -16.745001 6.678
23.309 -16.724001 6.5640001
23.277 -16.698999 6.4499998
23.233999 -16.667999 6.3319998
23.191999 -16.638 6.2160001
23.166 -16.618999 6.1040001
23.249001 -16.677999 6.0219998
23.33 -16.737 5.9380002
23.684 -16.99 5.921
23.284 -16.702999 5.717
23.223 -16.66 5.598
23.194 -16.639 5.487
23.143 -16.601999 5.3720002
23.118999 -16.584999 5.263
23.111 -16.579 5.158
23.110001 -16.577999 5.0549998
23.073999 -16.551001 4.9450002
23.042 -16.528 4.836
23.002001 -16.499001 4.7249999
22.971001 -16.476999 4.6170001
22.929001 -16.447001 4.507
22.899 -16.424999 4.4000001
22.877001 -16.41 4.2950001
22.84 -16.382999 4.1869998
22.823 -16.371 4.0840001
22.485001 -16.129 3.924
22.458 -16.108999 3.8210001
22.417999 -16.080999 3.7160001
22.389999 -16.061001 3.6129999
22.353001 -16.034 3.5090001
22.318001 -16.007 3.405
22.298 -15.993 3.3050001
22.268999 -15.972 3.204
22.221001 -15.938 3.099
22.204 -15.926 3
22.173 -15.904 2.8989999
22.132999 -15.875 2.7980001
22.111 -15.86 2.6989999
22.077999 -15.836 2.598
22.042 -15.811 2.4990001
22.014999 -15.791 2.4000001
21.974001 -15.762 2.3
21.954 -15.747 2.2030001
21.917999 -15.722 2.1040001
21.903999 -15.711 2.0079999
21.858 -15.677 1.908
21.84 -15.664 1.812
21.799999 -15.636 1.715
21.761 -15.608 1.617
21.737 -15.591 1.522
21.705999 -15.568 1.425
21.681999 -15.551 1.331
21.658001 -15.534 1.2359999
21.625999 -15.511 1.14
21.596001 -15.49 1.046
21.573 -15.474 0.95099998
21.532 -15.444 0.85699999
21.509001 -15.428 0.76300001
21.473 -15.402 0.66900003
21.445999 -15.382 0.57599998
21.415001 -15.36 0.48199999
21.384001 -15.338 0.38999999
21.363001 -15.323 0.29800001
21.337 -15.304 0.205
21.299999 -15.278 0.113
21.263 -15.251 0.021
21.243999 -15.238 -0.071000002
21.215 -15.217 -0.162
21.186001 -15.197 -0.25299999
21.159 -15.177 -0.34400001
21.118999 -15.149 -0.435
21.108999 -15.142 -0.52499998
21.077 -15.119 -0.61500001
21.044001 -15.096 -0.70499998
21.018 -15.076 -0.79500002
20.993 -15.058 -0.88499999
20.959 -15.034 -0.97299999
20.938999 -15.019 -1.063
20.909 -14.998 -1.152
20.881001 -14.978 -1.24
20.844999 -14.952 -1.329
21.028999 -15.085 -1.431
21.136999 -15.162 -1.529
21.111 -15.144 -1.619
21.129999 -15.157 -1.712
20.943001 -15.024 -1.788
20.834 -14.946 -1.9579999
20.836 -14.946 -2.049
20.82 -14.935 -2.138
20.836 -14.947 -2.23
20.813 -14.93 -2.3180001
20.787001 -14.912 -2.405
20.754 -14.888 -2.4920001
20.724001 -14.867 -2.5780001
20.702 -14.852 -2.6659999
20.681999 -14.838 -2.7539999
20.658001 -14.82 -2.8399999
20.636 -14.805 -2.928
20.617001 -14.791 -3.0150001
20.584999 -14.769 -3.1010001
20.538 -14.735 -3.1830001
20.539 -14.736 -3.273
20.49 -14.7 -3.355
20.441 -14.665 -3.437
20.438 -14.663 -3.526
20.410999 -14.644 -3.6110001
20.336 -14.59 -3.687
20.094999 -14.418 -3.733
20.072001 -14.402 -3.8169999
20.034 -14.375 -3.898
20.014999 -14.361 -3.983
20.000999 -14.351 -4.0679998
19.974001 -14.333 -4.152
19.937 -14.306 -4.2319999
19.919001 -14.294 -4.3169999
19.889 -14.272 -4.3990002
19.861 -14.253 -4.4809999
19.849001 -14.243 -4.5669999
19.816999 -14.22 -4.6479998
19.799999 -14.208 -4.7329998
19.766001 -14.185 -4.8130002
19.729 -14.158 -4.8920002
19.705999 -14.142 -4.9749999
19.693001 -14.133 -5.0599999
19.652 -14.104 -5.138
19.631001 -14.089 -5.2210002
19.601 -14.068 -5.3010001
19.709999 -14.146 -5.421
19.754 -14.178 -5.5219998
19.747999 -14.174 -5.6100001
19.725 -14.158 -5.783
19.667 -14.116 -5.8559999
19.681999 -14.127 -5.9499998
19.599001 -14.067 -6.0139999
19.570999 -14.048 -6.0960002
19.636 -14.095 -6.2059999
19.57 -14.048 -6.276
19.597 -14.067 -6.3740001
19.559999 -14.041 -6.4520001
19.528 -14.019 -6.533
19.459 -13.969 -6.599
19.482 -13.987 -6.698
19.488001 -13.991 -6.7909999
19.416 -13.94 -6.8559999
15.992 -11.485 -5.9460001
15.733 -11.299 -5.9239998
15.64 -11.232 -5.9629998
15.509 -11.139 -5.9860001
15.435 -11.086 -6.0310001
15.37 -11.04 -6.079
15.283 -10.978 -6.1170001
15.237 -10.945 -6.171
15.211 -10.927 -6.2340002
15.187 -10.91 -6.2969999
15.118 -10.861 -6.3410001
15.103 -10.85 -6.4070001
15.084 -10.837 -6.4720001
15.087 -10.839 -6.546
15.079 -10.833 -6.6160002
15.054 -10.815 -6.678
15.074 -10.83 -6.7610002
15.079 -10.834 -6.8369999
15.118 -10.862 -6.9289999
15.168 -10.899 -7.027
15.191 -10.915 -7.112
17.312 -12.438 -8.191
16.795 -12.067 -8.0299997
15.785 -11.343 -7.625
15.183 -10.911 -7.4099998
14.655 -10.533 -7.2259998
14.041 -10.092 -6.9920001
13.447 -9.6660004 -6.7649999
13.045 -9.3769999 -6.6279998
12.622 -9.0740004 -6.4770002
12.482 -8.974 -6.4679999
12.383 -8.9029999 -6.48
12.066 -8.6759996 -6.3759999
11.647 -8.375 -6.2129998
11.31 -8.1339998 -6.092
10.946 -7.8730001 -5.9520001
10.639 -7.6529999 -5.8400002
10.352 -7.447 -5.7360001
10.088 -7.2579999 -5.6420002
25.577 -18.23 13.803
25.525999 -18.193001 13.645
25.478001 -18.159 13.49
25.424999 -18.121 13.332
25.379 -18.087 13.179
25.325001 -18.049 13.022
25.284 -18.02 12.874
25.243 -17.99 12.726
25.200001 -17.959 12.577
25.139999 -17.916 12.422
25.101 -17.888 12.276
25.059999 -17.858999 12.132
25.007 -17.819 11.982
24.962999 -17.787001 11.837
24.919001 -17.756001 11.694
24.874001 -17.723 11.549
24.829 -17.691 11.407
24.792999 -17.666 11.27
24.740999 -17.628 11.124
24.695999 -17.596001 10.984
24.671 -17.577999 10.852
24.607 -17.532 10.705
24.568001 -17.504 10.57
24.530001 -17.476999 10.435
24.488001 -17.447001 10.299
24.450001 -17.419001 10.165
24.396999 -17.379999 10.027
24.368999 -17.358999 9.8990002
24.320999 -17.325001 9.7629995
24.275999 -17.292999 9.6300001
24.237 -17.264999 9.4989996
24.193001 -17.233999 9.3669996
24.15 -17.202999 9.2370005
24.216999 -17.25 9.1479998
24.316 -17.320999 9.0710001
24.614 -17.533001 9.066
24.532 -17.474001 8.9219999
24.481001 -17.438 8.7889996
24.447001 -17.414 8.6619997
24.417999 -17.392 8.5389996
24.378 -17.364 8.4110003
24.104 -17.167 8.2049999
25.563 -18.205 8.5839996
23.983 -17.080999 7.9419999
25.698999 -18.302 8.3920002
23.65 -16.844 7.6129999
23.614 -16.818001 7.494
23.579 -16.792999 7.375
23.539 -16.764999 7.2540002
23.507999 -16.742001 7.138
23.462 -16.709 7.0170002
23.424 -16.681999 6.8979998
23.4 -16.665001 6.7849998
23.358 -16.635 6.6669998
23.320999 -16.608999 6.5510001
23.285999 -16.584 6.4359999
23.252001 -16.558001 6.3210001
23.218 -16.534 6.2080002
23.177 -16.504 6.092
23.288 -16.584 6.0170002
23.426001 -16.681999 5.948
23.715 -16.886999 5.914
23.275 -16.573999 5.7010002
23.240999 -16.549999 5.5879998
23.184 -16.509001 5.4710002
23.172001 -16.500999 5.3660002
23.166 -16.496 5.2600002
23.158001 -16.49 5.1560001
23.125999 -16.468 5.046
23.091999 -16.444 4.9359999
23.056 -16.416 4.8270001
23.044001 -16.408001 4.7220001
22.990999 -16.370001 4.6100001
22.952999 -16.343 4.5
22.934999 -16.33 4.3959999
22.892 -16.299999 4.2870002
22.856001 -16.274 4.1799998
22.819 -16.247999 4.073
22.499001 -16.02 3.9170001
22.478001 -16.006001 3.8150001
22.437 -15.976 3.71
22.403999 -15.953 3.6059999
22.372 -15.93 3.503
22.35 -15.914 3.402
22.308001 -15.884 3.2980001
22.27 -15.856 3.1960001
22.245001 -15.838 3.095
22.221001 -15.821 2.9949999
22.176001 -15.789 2.892
22.145 -15.768 2.7920001
22.125 -15.753 2.694
22.094 -15.731 2.5940001
22.062 -15.708 2.4949999
22.030001 -15.686 2.395
21.992001 -15.659 2.296
21.966 -15.64 2.1989999
21.938999 -15.621 2.1010001
21.91 -15.6 2.003
21.874001 -15.575 1.905
21.844999 -15.553 1.808
21.82 -15.535 1.7129999
21.778999 -15.506 1.615
21.764 -15.496 1.52
21.721001 -15.465 1.423
21.690001 -15.443 1.3279999
21.662001 -15.423 1.233
21.642 -15.409 1.138
21.605 -15.383 1.044
21.57 -15.358 0.94800001
21.542999 -15.339 0.85500002
21.518999 -15.322 0.76200002
21.483999 -15.297 0.66799998
21.462 -15.282 0.57499999
21.423 -15.254 0.48100001
21.415001 -15.247 0.389
21.377001 -15.22 0.29699999
21.346001 -15.198 0.204
21.318001 -15.178 0.113
21.295 -15.162 0.02
21.26 -15.138 -0.071000002
21.225 -15.113 -0.161
21.197001 -15.093 -0.25299999
21.179001 -15.08 -0.34299999
21.142 -15.054 -0.43399999
21.115 -15.035 -0.52399999
21.094 -15.02 -0.61400002
21.070999 -15.004 -0.704
21.041 -14.983 -0.79400003
21.006001 -14.958 -0.88300002
20.978001 -14.937 -0.972
20.947001 -14.915 -1.0599999
20.921 -14.896 -1.15
20.895 -14.878 -1.238
20.868999 -14.86 -1.327
21.031 -14.975 -1.427
21.385 -15.227 -1.543
21.007999 -14.96 -1.607
20.981001 -14.94 -1.6950001
20.937 -14.909 -1.783
20.941999 -14.913 -1.873
20.834999 -14.838 -2.1340001
20.857 -14.853 -2.227
20.833 -14.835 -2.3139999
20.783001 -14.8 -2.4890001
20.735001 -14.766 -2.664
20.698 -14.74 -2.7490001
20.677 -14.725 -2.836
20.650999 -14.707 -2.9230001
20.620001 -14.685 -3.0079999
20.594 -14.667 -3.0940001
20.495001 -14.597 -3.348
20.485001 -14.59 -3.4360001
20.445999 -14.563 -3.5190001
20.441 -14.558 -3.608
20.347 -14.491 -3.6800001
20.115 -14.327 -3.727
20.101 -14.317 -3.812
20.056999 -14.286 -3.8929999
20.042999 -14.276 -3.9779999
20.009001 -14.253 -4.0599999
19.987 -14.237 -4.1440001
19.966 -14.222 -4.2280002
19.927 -14.194 -4.3080001
19.923 -14.192 -4.395
19.885 -14.166 -4.4749999
19.860001 -14.148 -4.5580001
19.829 -14.126 -4.6389999
19.801001 -14.105 -4.7210002
19.775999 -14.088 -4.803
19.754 -14.072 -4.8860002
19.738001 -14.061 -4.9710002
19.708 -14.04 -5.0510001
19.677999 -14.019 -5.132
19.655001 -14.003 -5.2150002
19.629999 -13.986 -5.296
19.597 -13.962 -5.3759999
19.761999 -14.08 -5.5999999
19.667 -14.014 -5.842
19.652 -14.002 -5.9260001
19.628 -13.985 -6.0079999
19.594 -13.961 -6.0879998
19.653 -14.004 -6.1960001
19.618999 -13.98 -6.276
19.591 -13.96 -6.3569999
19.579 -13.952 -6.4419999
19.548 -13.93 -6.5229998
19.517 -13.909 -6.6030002
19.521999 -13.912 -6.6950002
19.485001 -13.887 -6.7729998
19.455 -13.866 -6.8530002
19.382999 -13.815 -6.9180002
19.391001 -13.821 -7.0110002
19.372999 -13.808 -7.0960002
16.098 -11.477 -5.9710002
15.805 -11.267 -5.9359999
15.671 -11.173 -5.96
15.585 -11.112 -6.0009999
15.49 -11.044 -6.0380001
15.456 -11.021 -6.098
15.409 -10.987 -6.152
15.36 -10.952 -6.2059999
15.265 -10.886 -6.2399998
15.28 -10.896 -6.3200002
15.292 -10.905 -6.3979998
15.236 -10.866 -6.447
15.223 -10.857 -6.5159998
15.221 -10.856 -6.5879998
15.215 -10.852 -6.6599998
15.215 -10.851 -6.7329998
15.229 -10.861 -6.8130002
15.238 -10.868 -6.8920002
15.24 -10.87 -6.967
15.292 -10.907 -7.0669999
15.314 -10.923 -7.152
17.437 -12.436 -8.2299995
16.868 -12.031 -8.0450001
15.875 -11.324 -7.6490002
15.271 -10.894 -7.4349999
14.742 -10.517 -7.25
14.154 -10.099 -7.0320001
13.552 -9.6709995 -6.8010001
13.15 -9.3850002 -6.665
12.764 -9.1090002 -6.5339999
12.506 -8.9250002 -6.4640002
12.393 -8.8459997 -6.4689999
12.167 -8.684 -6.4130001
11.739 -8.3800001 -6.2470002
11.375 -8.1210003 -6.112
11.018 -7.8670001 -5.9759998
10.71 -7.6479998 -5.8639998
10.421 -7.4419999 -5.7600002
10.155 -7.2529998 -5.665
25.59 -18.104 13.773
25.542 -18.07 13.617
25.489 -18.033001 13.459
25.445 -18.002001 13.306
25.396999 -17.966999 13.152
25.339001 -17.926001 12.994
25.302999 -17.9 12.848
25.254 -17.865 12.697
25.208 -17.833 12.547
25.152 -17.792 12.394
25.115 -17.766001 12.25
25.066 -17.731001 12.102
25.025999 -17.702 11.959
24.972 -17.665001 11.809
24.93 -17.632999 11.667
24.891001 -17.605 11.525
24.896999 -17.608999 11.407
24.893999 -17.607 11.284
24.910999 -17.618 11.17
24.924 -17.627001 11.055
24.752001 -17.504999 10.858
24.620001 -17.412001 10.682
24.577 -17.382 10.545
24.531 -17.349001 10.406
24.493 -17.322001 10.273
24.454 -17.294001 10.139
24.421 -17.271 10.009
24.379999 -17.240999 9.8760004
24.332001 -17.205 9.7399998
24.294001 -17.179001 9.6099997
24.254999 -17.150999 9.4790001
24.208 -17.118 9.3470001
24.166 -17.087 9.217
24.254999 -17.150999 9.1370001
24.344999 -17.214001 9.0570002
24.594999 -17.389999 9.0340004
24.558001 -17.364 8.9060001
24.504 -17.326 8.7729998
24.471001 -17.302 8.6459999
24.441999 -17.282 8.5229998
24.398001 -17.25 8.3940001
24.040001 -16.997 8.1599998
25.607 -18.104 8.5749998
24.037001 -16.993999 7.9369998
23.941 -16.924999 7.796
23.672001 -16.736 7.599
23.636 -16.709999 7.4790001
23.605 -16.688 7.362
23.549 -16.649 7.237
23.511999 -16.622 7.118
23.479 -16.599001 7.0019999
23.450001 -16.577999 6.8860002
23.403999 -16.545 6.7670002
23.378 -16.527 6.6529999
23.327999 -16.492001 6.5339999
23.299 -16.471001 6.421
23.268 -16.448999 6.3070002
23.23 -16.42 6.1929998
23.195 -16.396 6.079
23.323999 -16.487 6.0079999
23.476999 -16.594999 5.9429998
23.719999 -16.767 5.8979998
23.288 -16.461 5.6869998
23.264 -16.444 5.5770001
23.226999 -16.417999 5.4650002
23.186001 -16.389 5.3530002
23.209 -16.406 5.2550001
23.177 -16.382999 5.145
23.111 -16.336 5.027
23.099001 -16.327 4.9229999
23.096001 -16.326 4.8210001
23.054001 -16.296 4.71
22.990999 -16.250999 4.5960002
22.971001 -16.236 4.4899998
22.959 -16.226999 4.3870001
22.902 -16.187 4.276
22.889999 -16.177999 4.1729999
22.839001 -16.142 4.0640001
22.514 -15.913 3.9070001
22.489 -15.895 3.8050001
22.454 -15.87 3.701
22.422001 -15.848 3.5969999
22.386 -15.823 3.494
22.363001 -15.807 3.3929999
22.312 -15.771 3.2880001
22.299999 -15.762 3.1900001
22.253 -15.728 3.086
22.226999 -15.711 2.9860001
22.195 -15.686 2.885
22.176001 -15.673 2.7869999
22.139999 -15.648 2.687
22.097 -15.618 2.585
22.079 -15.605 2.4879999
22.037001 -15.575 2.388
22.014 -15.559 2.29
21.982 -15.536 2.1919999
21.948999 -15.513 2.0940001
21.915001 -15.489 1.9960001
21.899 -15.478 1.9
21.865999 -15.455 1.803
21.836 -15.433 1.707
21.792999 -15.403 1.609
21.771999 -15.389 1.515
21.743999 -15.367 1.418
21.712 -15.345 1.323
21.677999 -15.321 1.229
21.660999 -15.309 1.1339999
21.615999 -15.278 1.039
21.601999 -15.268 0.94499999
21.569 -15.244 0.85100001
21.530001 -15.217 0.75800002
21.507 -15.201 0.66399997
21.482 -15.183 0.57200003
21.500999 -15.197 0.479
21.513 -15.205 0.38800001
21.497 -15.195 0.296
21.371 -15.106 0.20200001
21.33 -15.075 0.11
21.311001 -15.062 0.017999999
21.274 -15.036 -0.072999999
21.245001 -15.015 -0.163
21.218 -14.997 -0.255
21.191999 -14.978 -0.345
21.159 -14.955 -0.43599999
21.134001 -14.937 -0.52600002
21.1 -14.914 -0.61500001
21.076 -14.897 -0.70499998
21.052999 -14.881 -0.79400003
21.013 -14.853 -0.884
21.003 -14.846 -0.97299999
20.969 -14.822 -1.061
20.938 -14.801 -1.15
20.906 -14.777 -1.238
20.889 -14.765 -1.327
21.056999 -14.883 -1.428
21.396999 -15.123 -1.543
21.032 -14.867 -1.608
20.983999 -14.833 -1.694
20.955 -14.812 -1.7819999
20.948999 -14.808 -1.872
20.900999 -14.774 -1.957
20.833 -14.727 -2.0409999
20.851999 -14.74 -2.1329999
20.84 -14.732 -2.2219999
20.864 -14.749 -2.3150001
20.823 -14.72 -2.4000001
20.809999 -14.711 -2.4890001
20.780001 -14.69 -2.575
20.75 -14.668 -2.6619999
20.704 -14.636 -2.7449999
20.669001 -14.611 -2.8299999
20.628 -14.582 -3.0039999
20.596001 -14.56 -3.089
20.59 -14.557 -3.178
20.558001 -14.534 -3.2620001
20.525999 -14.512 -3.3469999
20.489 -14.486 -3.4300001
20.452999 -14.46 -3.5139999
20.379 -14.409 -3.5899999
20.361 -14.396 -3.6759999
20.136999 -14.238 -3.724
20.101999 -14.214 -3.806
20.086 -14.202 -3.891
20.044001 -14.172 -3.971
20.031 -14.163 -4.0560002
20.002001 -14.142 -4.1389999
19.971001 -14.121 -4.2210002
19.952 -14.108 -4.3049998
19.929001 -14.092 -4.388
19.903 -14.074 -4.4699998
19.871 -14.051 -4.552
19.846001 -14.034 -4.6339998
19.818001 -14.015 -4.7160001
19.799999 -14.003 -4.8000002
19.773001 -13.983 -4.881
19.752001 -13.969 -4.9650002
19.722 -13.947 -5.0450001
19.698 -13.93 -5.1269999
19.677 -13.915 -5.21
19.639 -13.889 -5.2880001
19.617001 -13.874 -5.3709998
19.819 -14.017 -5.6040001
19.746 -13.966 -5.6729999
19.732 -13.956 -5.7579999
19.691999 -13.928 -5.8369999
19.667 -13.911 -5.9180002
19.634001 -13.888 -5.9980001
19.613001 -13.873 -6.0809999
19.646 -13.897 -6.1810002
19.6 -13.865 -6.257
19.622999 -13.881 -6.3540001
19.59 -13.857 -6.4320002
19.575001 -13.847 -6.5180001
19.537001 -13.82 -6.5949998
19.487 -13.785 -6.6690001
19.443001 -13.755 -6.8340001
19.395 -13.722 -6.908
19.396 -13.723 -6.9980001
19.396999 -13.724 -7.0890002
16.219 -11.478 -6.0029998
15.866 -11.229 -5.9460001
15.751 -11.148 -5.9780002
15.67 -11.091 -6.0209999
15.644 -11.073 -6.085
15.611 -11.049 -6.145
15.575 -11.024 -6.2049999
15.343 -10.86 -6.1859999
15.315 -10.841 -6.2470002
15.401 -10.901 -6.3559999
15.42 -10.916 -6.4369998
15.367 -10.878 -6.4889998
15.348 -10.866 -6.6290002
15.344 -10.863 -6.7020001
15.35 -10.868 -6.7779999
15.367 -10.88 -6.8600001
15.368 -10.881 -6.9359999
15.397 -10.902 -7.0240002
15.458 -10.945 -7.1279998
15.484 -10.964 -7.2150002
17.587999 -12.451 -8.283
15.998 -11.328 -7.6919999
15.378 -10.89 -7.4699998
14.835 -10.506 -7.2800002
14.245 -10.089 -7.0609999
13.649 -9.6680002 -6.8340001
13.217 -9.3620005 -6.684
12.838 -9.0950003 -6.5570002
12.517 -8.868 -6.4559999
12.435 -8.8100004 -6.4759998
12.232 -8.6669998 -6.4330001
11.813 -8.3710003 -6.2719998
11.445 -8.1110001 -6.1360002
11.093 -7.862 -6.0029998
10.772 -7.6350002 -5.8850002
10.483 -7.4310002 -5.7810001
10.207 -7.2360001 -5.6820002
25.598 -17.975 13.746
25.545 -17.937 13.588
25.504999 -17.909 13.438
25.457001 -17.875 13.282
25.393 -17.83 13.121
25.360001 -17.806999 12.976
25.306 -17.768999 12.821
25.264999 -17.739 12.674
25.224001 -17.709999 12.527
25.167 -17.67 12.374
25.124001 -17.639999 12.227
25.120001 -17.635 12.101
25.118 -17.634001 11.976
25.135 -17.645 11.86
25.139 -17.648001 11.739
25.129 -17.639999 11.61
25.101 -17.621 11.475
25.070999 -17.599001 11.339
25.032 -17.570999 11.199
24.982 -17.535999 11.056
24.684999 -17.327999 10.805
24.641001 -17.297001 10.667
24.596001 -17.264999 10.53
24.566 -17.243999 10.398
24.514999 -17.208 10.26
24.472 -17.177 10.124
24.434 -17.149 9.9919996
24.396999 -17.122999 9.8610001
24.349001 -17.089001 9.7259998
24.308001 -17.059999 9.5950003
24.264 -17.028999 9.4619999
24.216999 -16.996 9.3299999
24.181 -16.969999 9.2030001
24.299999 -17.054001 9.1339998
24.353001 -17.091 9.04
24.613001 -17.273001 9.0209999
24.570999 -17.243 8.8920002
24.52 -17.207001 8.7600002
24.499001 -17.191999 8.6379995
24.448 -17.156 8.507
24.417999 -17.135 8.3830004
24.072001 -16.891001 8.1529999
24.031 -16.862 8.0290003
23.999001 -16.84 7.908
23.959 -16.811001 7.7849998
23.677999 -16.615 7.585
23.645 -16.591 7.4660001
23.608999 -16.566 7.348
23.587999 -16.551001 7.2329998
23.528999 -16.51 7.1090002
23.497 -16.487 6.993
23.471001 -16.469 6.8779998
23.42 -16.433001 6.7579999
23.384001 -16.408001 6.6409998
23.351 -16.384001 6.527
23.315001 -16.358999 6.4120002
23.287001 -16.337999 6.2989998
23.25 -16.312 6.1849999
23.212 -16.285 6.0710001
23.361 -16.389 6.006
23.488001 -16.479 5.934
23.733 -16.65 5.8889999
23.306 -16.351 5.6799998
23.285 -16.336 5.5710001
23.209 -16.282 5.4499998
23.208 -16.282 5.3470001
23.216999 -16.288 5.2459998
23.209 -16.283001 5.1420002
23.158001 -16.247 5.0279999
23.111 -16.214001 4.9159999
23.107 -16.211 4.8140001
23.058001 -16.174999 4.7010002
23.047001 -16.167 4.598
22.989 -16.127001 4.4850001
22.944 -16.094999 4.3759999
22.813 -16.003 4.2519999
22.606001 -15.859 4.1139998
22.572001 -15.834 4.0089998
22.538 -15.811 3.904
22.507999 -15.789 3.8009999
22.462999 -15.758 3.6960001
22.438 -15.741 3.5940001
22.403 -15.716 3.4909999
22.384001 -15.703 3.3900001
22.343 -15.674 3.2869999
22.306 -15.648 3.1849999
22.283001 -15.632 3.085
22.25 -15.607 2.984
22.212 -15.581 2.882
22.177 -15.557 2.783
22.153 -15.539 2.684
22.113001 -15.512 2.5829999
22.093 -15.498 2.4860001
22.059999 -15.474 2.3859999
22.034 -15.457 2.289
21.993999 -15.429 2.191
21.982 -15.42 2.0940001
21.937 -15.389 1.9960001
21.908001 -15.369 1.899
21.875999 -15.346 1.802
21.847 -15.325 1.706
21.823 -15.309 1.61
21.794001 -15.289 1.515
21.757999 -15.262 1.418
21.728001 -15.241 1.324
21.701 -15.223 1.229
21.687 -15.213 1.135
21.695999 -15.219 1.043
21.698 -15.22 0.949
21.702999 -15.225 0.85699999
21.694 -15.218 0.764
21.712999 -15.231 0.671
21.694 -15.218 0.57800001
21.67 -15.202 0.484
21.658001 -15.193 0.39199999
21.611 -15.16 0.29899999
21.381001 -14.999 0.204
21.351999 -14.979 0.112
21.322001 -14.957 0.02
21.292 -14.936 -0.07
21.263 -14.916 -0.161
21.236 -14.897 -0.252
21.211 -14.88 -0.34200001
21.191999 -14.866 -0.433
21.145 -14.833 -0.52200001
21.125999 -14.82 -0.61199999
21.099001 -14.802 -0.70200002
21.073999 -14.784 -0.79100001
21.042 -14.762 -0.88
21.016001 -14.744 -0.96899998
20.993 -14.728 -1.057
20.965 -14.708 -1.146
20.934 -14.687 -1.234
20.899 -14.661 -1.322
21.056999 -14.772 -1.4220001
21.415001 -15.023 -1.538
21.049999 -14.767 -1.603
21.268 -14.921 -1.71
20.978001 -14.717 -1.777
20.959999 -14.705 -1.8660001
20.898001 -14.661 -1.95
20.882999 -14.651 -2.039
20.862 -14.637 -2.1259999
20.855 -14.632 -2.2160001
20.867001 -14.641 -2.3069999
20.843 -14.624 -2.3940001
20.806999 -14.599 -2.48
20.780001 -14.58 -2.566
20.773001 -14.574 -2.6559999
20.761999 -14.567 -2.744
20.701 -14.524 -2.825
20.694 -14.52 -2.914
20.621 -14.468 -2.993
20.57 -14.433 -3.075
20.534 -14.408 -3.1589999
20.514999 -14.395 -3.2449999
20.49 -14.378 -3.3310001
20.448999 -14.349 -3.4130001
20.421 -14.329 -3.497
20.423 -14.331 -3.5869999
20.389 -14.308 -3.6689999
20.158001 -14.146 -3.7160001
20.131001 -14.127 -3.799
20.103001 -14.108 -3.8829999
20.063 -14.079 -3.9630001
20.051001 -14.071 -4.0479999
20.018999 -14.049 -4.1300001
19.992001 -14.03 -4.2119999
19.983 -14.024 -4.2989998
19.950001 -14.001 -4.3790002
19.919001 -13.98 -4.461
19.898001 -13.965 -4.5440001
19.872 -13.947 -4.6259999
19.84 -13.925 -4.7069998
19.809999 -13.904 -4.7880001
19.783001 -13.886 -4.869
19.773001 -13.879 -4.9549999
19.738001 -13.854 -5.0339999
19.708 -13.834 -5.1139998
19.684999 -13.817 -5.197
19.658001 -13.798 -5.277
19.629999 -13.779 -5.3590002
19.805 -13.902 -5.4949999
19.809999 -13.905 -5.585
19.799 -13.898 -5.6719999
19.688 -13.821 -5.908
19.658001 -13.8 -5.987
19.618999 -13.774 -6.066
19.603001 -13.763 -6.1500001
19.665001 -13.807 -6.2589998
19.618999 -13.774 -6.3340001
19.584999 -13.751 -6.4120002
19.594999 -13.757 -6.506
19.559999 -13.733 -6.5840001
19.52 -13.705 -6.6609998
19.507999 -13.697 -6.7470002
19.469 -13.67 -6.823
19.414 -13.632 -6.895
19.365 -13.598 -6.967
19.299999 -13.553 -7.0339999
16.379 -11.504 -6.0450001
15.965 -11.214 -5.967
15.905 -11.172 -6.0190001
15.852 -11.136 -6.073
15.803 -11.101 -6.1290002
15.735 -11.054 -6.177
15.708 -11.036 -6.2399998
15.402 -10.82 -6.1919999
15.36 -10.791 -6.2480001
15.385 -10.808 -6.3309999
15.559 -10.931 -6.4770002
15.518 -10.903 -6.5339999
15.506 -10.894 -6.6040001
15.5 -10.891 -6.8260002
15.531 -10.913 -6.914
15.523 -10.908 -6.9860001
15.559 -10.934 -7.0780001
15.591 -10.956 -7.1690001
15.637 -10.989 -7.2659998
17.070999 -11.995 -8.1009998
15.531 -10.915 -7.5240002
14.966 -10.519 -7.3239999
14.398 -10.121 -7.1170001
13.744 -9.6619997 -6.8629999
13.283 -9.3389997 -6.6989999
12.926 -9.0880003 -6.5840001
12.553 -8.8269997 -6.4569998
12.461 -8.7629995 -6.4720001
12.354 -8.6879997 -6.48
11.926 -8.3879995 -6.3150001
11.525 -8.1059999 -6.1620002
11.173 -7.8600001 -6.0300002
10.849 -7.632 -5.9109998
10.548 -7.4219999 -5.802
10.257 -7.217 -5.6939998
25.754 -17.954 13.929
25.614 -17.857 13.722
25.566 -17.820999 13.567
25.507999 -17.780001 13.407
25.462 -17.747999 13.253
25.410999 -17.712 13.099
25.368 -17.681999 12.948
25.323 -17.65 12.799
25.275999 -17.618 12.649
25.240999 -17.593 12.505
25.181999 -17.551001 12.351
25.309999 -17.639999 12.288
25.332001 -17.655001 12.174
25.309999 -17.639999 12.039
25.280001 -17.618999 11.9
25.212 -17.570999 11.744
25.16 -17.535 11.597
25.333 -17.653 11.553
25.142 -17.52 11.344
25.096001 -17.488001 11.201
24.693001 -17.207001 10.782
24.648001 -17.174999 10.644
24.615 -17.152 10.512
24.566 -17.117001 10.373
24.534 -17.094999 10.243
24.488001 -17.063 10.106
24.444 -17.032 9.9720001
24.395 -16.997999 9.8369999
24.358999 -16.973 9.7069998
24.312 -16.940001 9.573
24.285 -16.921 9.448
24.238001 -16.886 9.316
24.187 -16.85 9.1829996
24.330999 -16.950001 9.1230001
24.375 -16.981001 9.026
24.615 -17.148001 9
24.57 -17.115999 8.8699999
24.242001 -16.888 8.6389999
24.202999 -16.861 8.5129995
24.160999 -16.830999 8.3870001
24.094 -16.784 8.2519999
24.089001 -16.781 8.1400003
24.056 -16.757999 8.0190001
24.011 -16.726 7.8930001
23.962999 -16.693001 7.7680001
23.698 -16.509001 7.573
23.669001 -16.487 7.4559999
23.615999 -16.448999 7.3319998
23.597 -16.436001 7.2179999
23.546 -16.400999 7.0970001
23.514999 -16.379 6.9809999
23.482 -16.356001 6.8649998
23.445 -16.33 6.7490001
23.402 -16.299999 6.6300001
23.360001 -16.271 6.5139999
23.323 -16.245001 6.3990002
23.292999 -16.224001 6.2859998
23.261999 -16.202999 6.1739998
23.233 -16.183001 6.0619998
23.384001 -16.287001 5.9970002
23.525 -16.384001 5.9289999
23.745001 -16.537001 5.8779998
23.365999 -16.273001 5.6810002
23.332001 -16.249001 5.5679998
23.256001 -16.195999 5.448
23.216999 -16.169001 5.336
23.236 -16.183001 5.2379999
23.212999 -16.166 5.1300001
23.150999 -16.122999 5.0139999
23.07 -16.066999 4.895
22.825001 -15.896 4.743
22.771999 -15.859 4.632
22.742001 -15.838 4.526
22.712999 -15.819 4.421
22.690001 -15.803 4.3169999
22.642 -15.768 4.21
22.617001 -15.75 4.1059999
22.579 -15.724 4.0009999
22.551001 -15.704 3.8970001
22.516001 -15.68 3.793
22.481001 -15.655 3.6900001
22.454 -15.637 3.5869999
22.42 -15.613 3.4849999
22.375 -15.582 3.381
22.344999 -15.561 3.28
22.326 -15.548 3.181
22.295 -15.526 3.079
22.26 -15.502 2.9790001
22.229 -15.481 2.878
22.193001 -15.456 2.7780001
22.158001 -15.43 2.678
22.129 -15.409 2.579
22.112 -15.398 2.4820001
22.077999 -15.374 2.3829999
22.055 -15.358 2.286
22.014999 -15.331 2.187
21.985001 -15.309 2.089
21.950001 -15.286 1.992
21.92 -15.265 1.895
21.888 -15.242 1.799
21.864 -15.226 1.7029999
21.888 -15.243 1.6109999
21.886999 -15.242 1.518
21.912001 -15.259 1.425
21.907 -15.256 1.331
21.916 -15.261 1.238
21.889 -15.242 1.143
21.868 -15.227 1.048
21.856001 -15.219 0.954
21.837 -15.206 0.86000001
21.804001 -15.183 0.76599997
21.768999 -15.159 0.671
21.726999 -15.13 0.57800001
21.698999 -15.111 0.484
21.704 -15.114 0.39199999
21.638 -15.069 0.29800001
21.393999 -14.898 0.20299999
21.363001 -14.877 0.112
21.330999 -14.855 0.02
21.309 -14.84 -0.07
21.278 -14.817 -0.161
21.249001 -14.797 -0.252
21.222 -14.778 -0.34099999
21.195999 -14.761 -0.43200001
21.159 -14.735 -0.52100003
21.145 -14.726 -0.611
21.107 -14.699 -0.69999999
21.080999 -14.681 -0.78899997
21.058001 -14.665 -0.87900001
21.039 -14.652 -0.96799999
21.018 -14.637 -1.056
20.976 -14.609 -1.1440001
20.948 -14.589 -1.232
20.917 -14.568 -1.3200001
21.084 -14.683 -1.421
21.431999 -14.925 -1.535
21.048 -14.658 -1.599
21.011 -14.632 -1.6849999
20.982 -14.613 -1.774
20.941999 -14.585 -1.949
20.903999 -14.559 -2.036
20.860001 -14.529 -2.1210001
20.858999 -14.528 -2.211
20.868 -14.534 -2.3010001
20.848 -14.521 -2.3889999
20.771999 -14.468 -2.47
20.746 -14.45 -2.556
20.718 -14.429 -2.642
20.686001 -14.407 -2.727
20.674 -14.4 -2.8139999
20.618999 -14.361 -2.8970001
20.608999 -14.355 -2.984
20.591 -14.343 -3.0710001
20.559 -14.32 -3.155
20.535999 -14.304 -3.24
20.507 -14.284 -3.325
20.481001 -14.267 -3.4100001
20.458 -14.251 -3.4960001
20.471001 -14.26 -3.586
20.403999 -14.214 -3.6630001
20.183001 -14.06 -3.7119999
20.139999 -14.031 -3.7920001
20.122999 -14.018 -3.8770001
20.09 -13.995 -3.9579999
20.056 -13.972 -4.039
20.037001 -13.959 -4.1240001
20.013 -13.942 -4.2059999
19.988001 -13.925 -4.29
19.962 -13.907 -4.3720002
19.934 -13.888 -4.4530001
19.915001 -13.875 -4.5370002
19.884001 -13.854 -4.618
19.863001 -13.839 -4.7010002
19.839001 -13.823 -4.783
19.812 -13.804 -4.8639998
19.789 -13.788 -4.947
19.756001 -13.766 -5.027
19.733999 -13.75 -5.1079998
19.705 -13.73 -5.1900001
19.691999 -13.721 -5.2740002
19.65 -13.692 -5.3509998
19.823999 -13.813 -5.487
19.771999 -13.778 -5.829
19.736 -13.754 -5.908
19.683001 -13.718 -5.9809999
19.628 -13.68 -6.0539999
19.622 -13.675 -6.1409998
19.662001 -13.704 -6.243
19.621 -13.675 -6.3189998
19.565001 -13.636 -6.3899999
19.511999 -13.599 -6.4629998
19.440001 -13.549 -6.5279999
19.268999 -13.431 -6.5599999
19.249001 -13.417 -6.6409998
19.219999 -13.397 -6.7199998
19.200001 -13.384 -6.802
19.169001 -13.362 -6.8800001
19.145 -13.346 -6.961
16.538 -11.531 -6.0890002
16.091999 -11.221 -6
16.056999 -11.197 -6.0619998
15.989 -11.15 -6.1110001
15.945 -11.119 -6.1690001
15.896 -11.084 -6.2249999
15.851 -11.053 -6.2820001
15.442 -10.769 -6.1929998
15.419 -10.753 -6.257
15.424 -10.757 -6.3319998
15.706 -10.954 -6.5229998
15.671 -10.93 -6.5830002
15.665 -10.926 -6.6560001
15.639 -10.909 -6.7199998
15.632 -10.904 -6.7919998
15.631 -10.903 -6.8670001
15.701 -10.953 -7.1259999
15.73 -10.973 -7.2160001
15.787 -11.012 -7.3179998
17.155001 -11.966 -8.1210003
16.361 -11.414 -7.8260002
15.629 -10.904 -7.553
15.048 -10.499 -7.3460002
14.524 -10.135 -7.1620002
13.876 -9.684 -6.9120002
13.355 -9.3210001 -6.7189999
12.984 -9.0629997 -6.5970001
12.582 -8.783 -6.4559999
12.491 -8.7200003 -6.4720001
12.408 -8.6630001 -6.4920001
12.02 -8.3920002 -6.3499999
11.597 -8.0970001 -6.1849999
11.241 -7.849 -6.052
10.892 -7.6069999 -5.9200001
10.621 -7.4180002 -5.8270001
10.336 -7.2199998 -5.724
10.046 -7.0180001 -5.6149998
25.737 -17.809 13.883
25.618999 -17.726999 13.688
25.573 -17.695 13.534
25.528999 -17.664 13.382
25.476999 -17.629 13.226
25.433001 -17.596001 13.075
25.374001 -17.555 12.916
25.326 -17.521999 12.766
25.292 -17.497999 12.623
25.246 -17.465 12.474
25.198999 -17.433001 12.326
25.364 -17.547001 12.281
25.368 -17.549 12.158
25.638 -17.736 12.162
25.719999 -17.792 12.074
25.215 -17.443001 11.714
25.181999 -17.42 11.576
25.073999 -17.344999 11.405
25.094999 -17.358999 11.293
25.094999 -17.357 11.17
25.016001 -17.302999 11.015
24.709 -17.09 10.76
24.667 -17.061001 10.624
24.631001 -17.035999 10.491
24.587 -17.004999 10.354
24.542 -16.974001 10.218
24.496 -16.941999 10.082
24.459999 -16.917 9.9519997
24.412001 -16.882999 9.8170004
24.368999 -16.854 9.684
24.332001 -16.827999 9.5550003
24.294001 -16.802 9.4259996
24.247999 -16.77 9.2950001
24.208 -16.74 9.1660004
24.379999 -16.858999 9.1169996
24.374001 -16.854 9.0010004
24.313999 -16.813 8.8660002
24.298 -16.801001 8.7469997
24.26 -16.775 8.6219997
24.216 -16.745001 8.4940004
24.17 -16.712999 8.3669996
24.155001 -16.702 8.25
25.563 -17.674999 8.6140003
25.712 -17.778 8.5469999
25.889 -17.9 8.4870005
23.871 -16.506001 7.7160001
23.707001 -16.392 7.5549998
23.667 -16.364 7.4349999
23.643999 -16.348 7.3210001
23.591999 -16.311001 7.197
23.563999 -16.292 7.0819998
23.523001 -16.263 6.9640002
23.497 -16.245001 6.8499999
23.447001 -16.209999 6.73
23.42 -16.191999 6.6170001
23.385 -16.167999 6.5019999
23.336 -16.132999 6.3839998
23.313 -16.118 6.2729998
23.275 -16.091 6.1599998
23.24 -16.066999 6.046
23.417 -16.188999 5.9889998
23.573999 -16.298 5.9239998
23.768 -16.431999 5.8670001
23.355 -16.146 5.6620002
23.247 -16.07 5.5320001
23.127001 -15.987 5.402
22.993 -15.895 5.27
22.961 -15.872 5.1599998
22.931999 -15.852 5.053
22.893 -15.826 4.9439998
22.863001 -15.805 4.8369999
22.829 -15.781 4.73
22.799 -15.76 4.6240001
22.757999 -15.732 4.5159998
22.731001 -15.714 4.4109998
22.684999 -15.682 4.303
22.667 -15.669 4.2020001
22.632999 -15.646 4.0960002
22.604 -15.624 3.993
22.561001 -15.595 3.8870001
22.534 -15.576 3.7839999
22.504 -15.555 3.6819999
22.457001 -15.523 3.5769999
22.436001 -15.508 3.477
22.403 -15.485 3.3740001
22.372 -15.464 3.273
22.332001 -15.436 3.171
22.315001 -15.425 3.072
22.282 -15.402 2.9719999
22.259001 -15.386 2.872
22.209 -15.352 2.7709999
22.187 -15.336 2.6730001
22.149 -15.309 2.572
22.127001 -15.294 2.4749999
22.097 -15.273 2.3770001
22.084 -15.264 2.2809999
22.083 -15.264 2.1860001
22.087 -15.266 2.092
22.106001 -15.28 1.999
22.112 -15.284 1.904
22.103001 -15.278 1.8099999
22.070999 -15.256 1.7129999
22.056 -15.245 1.617
22.052 -15.243 1.523
22.025 -15.224 1.426
22.011999 -15.215 1.332
21.964001 -15.182 1.2359999
21.924 -15.153 1.1390001
21.886 -15.127 1.044
21.877001 -15.121 0.94999999
21.787001 -15.059 0.76099998
21.785999 -15.058 0.66799998
23.047001 -15.929 0.60900003
21.768999 -15.047 0.48199999
21.681999 -14.987 0.38800001
21.659 -14.971 0.296
21.408001 -14.798 0.20100001
21.378 -14.778 0.11
21.355 -14.762 0.017999999
21.336 -14.748 -0.071999997
21.296 -14.721 -0.163
21.26 -14.697 -0.25299999
21.232 -14.676 -0.34299999
21.222 -14.669 -0.43399999
21.179001 -14.64 -0.523
21.157 -14.625 -0.61199999
21.125 -14.602 -0.70200002
21.106001 -14.59 -0.79100001
21.073 -14.567 -0.88
21.045 -14.548 -0.96799999
21.021 -14.531 -1.056
20.993999 -14.513 -1.145
20.969999 -14.496 -1.233
20.941 -14.477 -1.321
21.091999 -14.581 -1.42
21.452 -14.83 -1.535
21.070999 -14.567 -1.599
21.066 -14.562 -1.688
21.028999 -14.537 -1.776
20.927 -14.467 -2.036
20.879 -14.434 -2.1199999
20.870001 -14.428 -2.2090001
20.844 -14.41 -2.2950001
20.797001 -14.378 -2.3789999
20.797001 -14.378 -2.4690001
20.764999 -14.356 -2.5539999
20.74 -14.339 -2.641
20.712 -14.32 -2.7260001
20.681999 -14.299 -2.8110001
20.658001 -14.283 -2.8970001
20.628 -14.261 -2.9820001
20.653 -14.279 -3.075
20.646999 -14.275 -3.1630001
20.708 -14.317 -3.2620001
20.677999 -14.297 -3.3469999
20.617001 -14.255 -3.4259999
20.608999 -14.249 -3.5150001
20.549999 -14.209 -3.5940001
20.413 -14.115 -3.658
20.278 -14.021 -3.723
20.158001 -13.939 -3.7880001
20.135 -13.923 -3.872
20.103001 -13.901 -3.954
20.082001 -13.887 -4.0370002
20.055 -13.868 -4.1199999
20.030001 -13.85 -4.2020001
20.003 -13.832 -4.2849998
19.972 -13.811 -4.3660002
19.969999 -13.81 -4.4530001
19.924999 -13.779 -4.5310001
19.909 -13.768 -4.6149998
19.872999 -13.743 -4.6950002
19.847 -13.726 -4.776
19.829 -13.714 -4.8590002
19.796 -13.691 -4.9390001
19.764999 -13.67 -5.0190001
19.742001 -13.655 -5.1009998
19.726999 -13.644 -5.1849999
19.708 -13.631 -5.2680001
19.667 -13.603 -5.3449998
19.85 -13.729 -5.4829998
19.709999 -13.634 -5.8000002
19.695 -13.624 -5.9720001
19.496 -13.487 -6.0009999
19.441999 -13.45 -6.072
19.423 -13.437 -6.1550002
19.388 -13.413 -6.2319999
19.365999 -13.398 -6.3130002
19.341999 -13.382 -6.3940001
19.32 -13.366 -6.474
19.297001 -13.351 -6.5560002
19.256001 -13.322 -6.6300001
19.245001 -13.315 -6.7140002
19.219 -13.297 -6.7950001
19.186001 -13.275 -6.8720002
19.172001 -13.265 -6.9559999
16.715 -11.568 -6.1409998
16.242001 -11.241 -6.0430002
16.193001 -11.208 -6.0999999
16.162001 -11.187 -6.164
16.103001 -11.146 -6.217
16.138 -11.171 -6.3070002
16.195 -11.21 -6.4050002
16.094999 -11.142 -6.4419999
15.475 -10.713 -6.2659998
15.869 -10.985 -6.5009999
15.816 -10.949 -6.5549998
15.831 -10.96 -6.6360002
15.805 -10.942 -6.7010002
15.825 -10.956 -6.7849998
15.784 -10.928 -6.8429999
15.79 -10.932 -6.9219999
15.798 -10.939 -7.0009999
15.809 -10.946 -7.0830002
15.866 -10.986 -7.1849999
18.184 -12.59 -8.5010004
17.250999 -11.944 -8.1490002
16.517 -11.437 -7.8829999
15.751 -10.907 -7.5960002
15.146 -10.49 -7.3779998
14.636 -10.137 -7.2020001
14.021 -9.7119999 -6.9689999
13.445 -9.3149996 -6.75
13.06 -9.0489998 -6.6220002
12.609 -8.7370005 -6.4559999
12.514 -8.6709995 -6.4699998
12.41 -8.6000004 -6.4790001
12.073 -8.3669996 -6.3639998
11.664 -8.085 -6.2080002
11.301 -7.8340001 -6.072
10.97 -7.605 -5.9489999
10.677 -7.401 -5.8449998
10.375 -7.1929998 -5.7329998
10.103 -7.0050001 -5.6350002
25.684999 -17.638 13.824
25.632999 -17.601999 13.665
25.583 -17.566999 13.509
25.528999 -17.530001 13.352
25.487 -17.500999 13.202
25.441999 -17.469999 13.051
25.396 -17.438 12.899
25.337999 -17.398001 12.744
25.301001 -17.372 12.6
25.263 -17.346001 12.455
25.23 -17.323 12.315
25.395 -17.434 12.269
25.517 -17.518 12.203
25.643 -17.604 12.138
25.733999 -17.666 12.054
25.224001 -17.316 11.693
25.167999 -17.277 11.544
25.117001 -17.242001 11.399
25.099001 -17.229 11.27
25.027 -17.18 11.116
25.004999 -17.165001 10.986
24.726999 -16.974001 10.745
24.681999 -16.943001 10.607
24.636 -16.910999 10.47
24.594999 -16.882999 10.335
24.556 -16.854 10.202
24.518 -16.827999 10.069
24.468 -16.794001 9.934
24.43 -16.767 9.8030005
24.388 -16.738001 9.6709995
24.344999 -16.708 9.54
24.306999 -16.681999 9.4099998
24.264 -16.653 9.2810001
24.232 -16.629999 9.1560001
24.399 -16.745001 9.1049995
24.393 -16.740999 8.9899998
24.377001 -16.73 8.8699999
24.611 -16.889999 8.842
24.575001 -16.865 8.7159996
24.527 -16.832001 8.585
24.493999 -16.808001 8.4610004
24.209999 -16.613001 8.2510004
25.603001 -17.568001 8.6090002
24.087999 -16.528999 7.9899998
24.080999 -16.524 7.8769999
23.764999 -16.306999 7.6659999
23.726999 -16.281 7.5450001
23.704 -16.264999 7.4310002
23.656 -16.232 7.309
23.615 -16.204 7.1890001
23.591999 -16.188 7.0760002
23.544001 -16.155001 6.9559999
23.507 -16.129 6.8390002
23.474001 -16.107 6.724
23.427999 -16.073999 6.605
23.400999 -16.055 6.493
23.364 -16.030001 6.3790002
23.316 -15.997 6.2620001
23.292999 -15.981 6.152
23.282 -15.973 6.0450001
23.226999 -15.936 5.928
23.181 -15.904 5.8140001
23.15 -15.883 5.7030001
23.117001 -15.86 5.5929999
23.083 -15.836 5.4819999
23.048 -15.813 5.3730001
23.014999 -15.79 5.2639999
22.983 -15.768 5.1550002
22.941999 -15.74 5.046
22.915001 -15.72 4.9390001
22.878 -15.694 4.8309999
22.839001 -15.667 4.723
22.804001 -15.644 4.6160002
22.773001 -15.622 4.5100002
22.754999 -15.61 4.4070001
22.712999 -15.582 4.3010001
22.672001 -15.553 4.1950002
22.648001 -15.537 4.0910001
22.614 -15.513 3.987
22.591999 -15.498 3.885
22.551001 -15.47 3.7809999
22.516001 -15.446 3.678
22.481001 -15.422 3.5739999
22.445 -15.397 3.4719999
22.419001 -15.379 3.3710001
22.389 -15.358 3.27
22.358999 -15.337 3.1700001
22.333 -15.32 3.069
22.295 -15.294 2.9690001
22.264999 -15.273 2.869
22.23 -15.249 2.7690001
22.202 -15.23 2.671
22.18 -15.215 2.572
22.139 -15.187 2.473
22.108 -15.165 2.3740001
22.235001 -15.253 2.293
22.26 -15.27 2.201
22.240999 -15.257 2.1040001
22.26 -15.268 2.0109999
22.301001 -15.296 1.918
22.287001 -15.287 1.823
22.318001 -15.309 1.73
22.089001 -15.151 1.618
22.052 -15.126 1.522
22.101 -15.16 1.336
26.240999 -17.997 1.476
21.979 -15.077 1.142
26.660999 -18.285 1.272
21.940001 -15.05 0.95300001
23.164 -15.889 0.90799999
21.861 -14.996 0.764
23.101999 -15.847 0.70899999
23.080999 -15.831 0.611
21.790001 -14.946 0.48300001
21.764999 -14.929 0.391
21.677 -14.869 0.29800001
21.434 -14.703 0.20299999
21.403 -14.682 0.112
21.372999 -14.662 0.02
21.344 -14.641 -0.07
21.313999 -14.621 -0.16
21.302999 -14.614 -0.25099999
21.268 -14.59 -0.34099999
21.228001 -14.562 -0.43099999
21.198 -14.542 -0.51999998
21.174 -14.526 -0.60900003
21.153 -14.512 -0.699
21.125 -14.491 -0.787
21.094999 -14.471 -0.87599999
21.066 -14.451 -0.96399999
21.039 -14.433 -1.052
21.014999 -14.416 -1.141
20.979 -14.392 -1.228
20.951 -14.373 -1.316
21.120001 -14.489 -1.416
21.464001 -14.725 -1.53
21.080999 -14.462 -1.5930001
21.077999 -14.461 -1.683
21.016001 -14.418 -1.768
20.965 -14.383 -1.942
20.893 -14.333 -2.1140001
20.895 -14.335 -2.204
20.868 -14.317 -2.29
20.843 -14.3 -2.3759999
20.844 -14.3 -2.4660001
20.827 -14.289 -2.553
20.902 -14.341 -2.6530001
20.881001 -14.326 -2.7390001
20.844999 -14.302 -2.8239999
20.820999 -14.285 -2.911
20.773001 -14.253 -2.993
20.733 -14.226 -3.0769999
20.729 -14.224 -3.1659999
20.702999 -14.206 -3.2509999
20.66 -14.176 -3.3340001
20.621 -14.149 -3.4159999
20.608 -14.14 -3.5039999
20.552 -14.102 -3.5829999
20.429001 -14.018 -3.6500001
20.393999 -13.994 -3.733
20.183001 -13.85 -3.7820001
20.155001 -13.831 -3.8640001
20.127001 -13.812 -3.947
20.094999 -13.79 -4.0279999
20.073 -13.775 -4.1110001
20.048 -13.758 -4.1929998
20.033001 -13.748 -4.2779999
19.986 -13.717 -4.3559999
19.969999 -13.705 -4.4390001
19.952999 -13.693 -4.5240002
19.917999 -13.669 -4.6030002
19.900999 -13.658 -4.6869998
19.871 -13.638 -4.7680001
19.844999 -13.62 -4.849
19.819 -13.602 -4.9310002
19.794001 -13.586 -5.0120001
19.767 -13.567 -5.092
19.745001 -13.553 -5.1750002
19.716 -13.533 -5.2550001
19.693001 -13.518 -5.3369999
19.823999 -13.607 -5.46
19.636999 -13.48 -5.4970002
19.611 -13.462 -5.5780001
19.593 -13.449 -5.6599998
19.561001 -13.427 -5.7389998
19.544001 -13.416 -5.822
19.511 -13.394 -5.9000001
19.48 -13.373 -5.9790001
19.451 -13.353 -6.0570002
19.441 -13.346 -6.1430001
19.419001 -13.332 -6.224
19.391001 -13.313 -6.303
19.354 -13.288 -6.3800001
19.337 -13.277 -6.4619999
19.313 -13.261 -6.5430002
19.282 -13.239 -6.6199999
19.259001 -13.224 -6.7010002
19.235001 -13.208 -6.7820001
19.209 -13.189 -6.8600001
19.179001 -13.169 -6.9390001
17.037001 -11.7 -6.2420001
16.415001 -11.274 -6.0900002
16.33 -11.216 -6.1350002
16.295 -11.192 -6.198
16.237 -11.153 -6.2519999
16.177 -11.112 -6.3039999
16.143999 -11.089 -6.3670001
16.118 -11.072 -6.4330001
16.087999 -11.052 -6.4970002
16.031 -11.013 -6.5500002
16.054001 -11.029 -6.6350002
16.038 -11.018 -6.704
15.964 -10.968 -6.75
15.97 -10.971 -6.8280001
15.95 -10.958 -6.8959999
15.931 -10.946 -6.9640002
15.963 -10.968 -7.0549998
15.976 -10.977 -7.138
15.989 -10.986 -7.2210002
16.066999 -11.04 -7.3340001
14.763 -10.148 -7.2449999
13.571 -9.3299999 -6.7940001
13.143 -9.0360003 -6.6459999
12.75 -8.7670002 -6.5110002
12.54 -8.6230001 -6.4660001
12.451 -8.5620003 -6.4829998
12.185 -8.3800001 -6.4050002
11.752 -8.0830002 -6.237
11.415 -7.8519998 -6.1160002
11.067 -7.6129999 -5.9850001
10.749 -7.395 -5.869
10.465 -7.1999998 -5.7670002
10.171 -6.9990001 -5.6570001
25.693001 -17.511999 13.796
25.646 -17.479 13.639
25.601 -17.448 13.487
25.555 -17.417 13.335
25.49 -17.372 13.172
25.450001 -17.344999 13.024
25.409 -17.316999 12.875
25.358 -17.282 12.724
25.312 -17.25 12.576
25.280001 -17.226999 12.434
25.261999 -17.214001 12.301
25.416 -17.318001 12.25
25.569 -17.422001 12.198
25.657 -17.482 12.116
25.232 -17.191999 11.791
25.190001 -17.163 11.649
25.153999 -17.139 11.51
25.106001 -17.106001 11.367
25.097 -17.1 11.242
25.042999 -17.063 11.097
25.000999 -17.033001 10.958
24.733 -16.851 10.722
24.694 -16.825001 10.587
24.655001 -16.797001 10.453
24.607 -16.763 10.315
24.573 -16.739 10.185
24.524 -16.705999 10.048
24.489 -16.681999 9.9180002
24.452999 -16.657 9.7889996
24.407 -16.625999 9.6549997
24.361 -16.594999 9.5229998
24.318001 -16.565001 9.3920002
24.268 -16.531 9.2600002
24.283001 -16.541 9.1529999
24.427 -16.639 9.0930004
24.607 -16.761 9.0469999
24.67 -16.804001 8.9549999
24.627001 -16.774 8.8260002
24.589001 -16.747999 8.6999998
24.566 -16.733 8.5780001
24.528999 -16.705999 8.4530001
24.165001 -16.458 8.2159996
25.625 -17.451 8.5959997
24.083 -16.402 7.9689999
25.959 -17.679001 8.4720001
23.781 -16.195999 7.6529999
23.738001 -16.167 7.5310001
23.711 -16.148001 7.415
23.660999 -16.115 7.2930002
23.629999 -16.093 7.177
23.601 -16.073 7.0619998
23.562 -16.047001 6.9450002
23.516001 -16.014999 6.8249998
23.485001 -15.994 6.711
23.450001 -15.969 6.5960002
23.403999 -15.938 6.4790001
23.374001 -15.917 6.3670001
23.327999 -15.885 6.25
23.304001 -15.869 6.1399999
23.271 -15.847 6.0279999
23.232 -15.82 5.915
23.202999 -15.8 5.8049998
23.164 -15.774 5.6929998
23.135 -15.754 5.5840001
23.086 -15.72 5.4699998
23.063 -15.705 5.3639998
23.028 -15.681 5.2550001
22.985001 -15.652 5.1440001
22.966 -15.639 5.039
22.927 -15.611 4.9299998
22.893999 -15.588 4.823
22.860001 -15.565 4.7160001
22.827999 -15.543 4.6100001
22.792999 -15.519 4.5040002
22.764 -15.5 4.3979998
22.733999 -15.479 4.2940001
22.688999 -15.449 4.1880002
22.659 -15.428 4.0830002
22.643 -15.417 3.983
22.601999 -15.39 3.878
22.565001 -15.364 3.7739999
22.535 -15.344 3.6719999
22.503 -15.322 3.569
22.465 -15.296 3.467
22.437 -15.277 3.365
22.405001 -15.254 3.2650001
22.375999 -15.234 3.165
22.35 -15.217 3.0639999
22.316 -15.193 2.964
22.268 -15.161 2.862
22.253 -15.151 2.7650001
22.219999 -15.129 2.6659999
22.174999 -15.098 2.566
22.17 -15.095 2.471
22.129999 -15.067 2.3710001
22.254999 -15.153 2.29
22.441 -15.279 2.214
