# .PCD v0.7 - Point Cloud Data file format
VERSION 0.7
FIELDS x y z
SIZE 4 4 4
TYPE F F F
COUNT 1 1 1
WIDTH 1419
HEIGHT 1
VIEWPOINT 0 0 0 1 0 0 0
POINTS 1419
DATA ascii
-17.923367 1.1580713 0.010765076
-17.895691 1.0658822 -0.0069026947
-17.882828 0.97830868 0.002117157
-17.86124 0.88805532 -0.0033740997
-17.847548 0.80012512 0.0045528412
-17.825336 0.71108055 -0.0036144257
-17.808662 0.62107468 -0.0019130707
-17.792515 0.53302097 0.0024185181
-17.775055 0.44454956 0.0023784637
-17.756954 0.35634089 -9.5367432e-006
-17.743263 0.26841116 0.0079212189
-17.721054 0.17936611 -0.00024986267
-17.706718 0.091700077 0.0053310394
-17.686001 0.0036935806 0.0002784729
-17.667877 -0.085459709 -0.001783371
-17.648811 -0.17275333 -0.0046577454
-17.635948 -0.26032782 0.0043621063
-17.612289 -0.3485198 -0.0075721741
-17.593708 -0.43575191 -0.0071620941
-17.577744 -0.52318621 -0.0040912628
-17.560307 -0.61071205 -0.0044555664
-17.539749 -0.6990447 -0.010442734
-17.531017 -0.78483629 0.0040302277
-17.507866 -0.87202168 -0.004945755
-17.490431 -0.95954847 -0.0053138733
-17.475315 -1.045681 -0.0014743805
-17.451012 -1.1336093 -0.015758514
-17.437366 -1.2196493 -0.0084781647
-17.420759 -1.306819 -0.0077533722
-17.40546 -1.3935709 -0.002658844
-17.389679 -1.4803853 -0.00084114075
-17.371597 -1.5676479 -0.0035552979
-17.351753 -1.6534081 -0.0081710815
-17.330093 -1.7395558 -0.014038086
-17.317249 -1.8261843 -0.0053405762
-17.296761 -1.9116807 -0.012308121
-15.278331 -1.9673433 -3.8918152
-15.191764 -2.0361466 -4.0329323
-15.097548 -2.1038179 -4.1897068
-15.020947 -2.172358 -4.310955
-14.952889 -2.2388391 -4.4164314
-14.879617 -2.3050094 -4.5336437
-14.813878 -2.3700957 -4.6349163
-14.673476 -2.4293809 -4.8841114
-14.536059 -2.4865894 -5.1270771
-14.439751 -2.5462031 -5.2913151
-14.360253 -2.6060977 -5.4214439
-14.299219 -2.6655607 -5.5152836
-14.300098 -2.7315974 -5.4888763
-14.316276 -2.7998981 -5.4311523
-14.259191 -2.8581996 -5.51828
-14.180587 -2.9149017 -5.6482964
-14.154619 -2.9768147 -5.6762333
-14.139882 -3.0399384 -5.6792812
-14.137019 -3.1055722 -5.661171
-14.217939 -3.184988 -5.4746895
-14.208714 -3.2500176 -5.4675426
-14.166305 -3.3093734 -5.5260239
-15.105396 -3.5517583 -3.619957
-14.729535 -3.5532908 -4.3439903
-14.413499 -3.5602813 -4.9538898
-14.044889 -3.5522842 -5.6681957
-13.736221 -3.5509253 -6.2625732
-13.514252 -3.5651445 -6.6874504
-13.331347 -3.5846667 -7.032938
-13.262337 -3.6295013 -7.1493492
-13.187998 -3.6718102 -7.277216
-12.917746 -3.6626439 -7.8033257
-12.658331 -3.6509695 -8.3091297
-12.414234 -3.6406131 -8.7839432
-12.245678 -3.6476943 -9.1076965
-12.065497 -3.6488101 -9.4548454
-11.880217 -3.6448889 -9.8153591
-21.63446 20.146847 -0.0076522827
-21.603401 19.981167 -0.002412796
-21.569355 19.81341 -0.00340271
-21.532623 19.643021 -0.0060806274
-21.499447 19.477512 -0.0066318512
-21.464621 19.311291 -0.0093631744
-21.433695 19.151283 -0.0060787201
-21.39875 18.987276 -0.0085334778
-21.367987 18.826942 -0.0061817169
-21.336304 18.669415 -0.0049667358
-21.338009 18.556271 0.044452667
-21.41316 18.536648 0.19835281
-21.498455 18.531792 0.36816406
-21.519463 18.44017 0.44450951
-21.179159 17.887142 -0.0016212463
-21.141182 17.726112 -0.010997772
-21.112091 17.574375 -0.0081386566
-21.079002 17.41959 -0.011339188
-21.051628 17.271402 -0.0072803497
-21.02095 17.121792 -0.0075778961
-20.994473 16.976795 -0.0034046173
-20.952524 16.81366 -0.019165039
-20.932472 16.677835 -0.0063552856
-20.900164 16.528456 -0.0091629028
-20.868038 16.379696 -0.01322937
-20.845898 16.246027 -0.00045394897
-20.812256 16.095285 -0.0073108673
-20.789608 15.960609 0.0025100708
-20.753647 15.808472 -0.0085468292
-20.728657 15.671455 -0.0026073456
-20.700661 15.531422 -0.0025672913
-20.670141 15.388424 -0.0051498413
-20.641499 15.248652 -0.0074596405
-20.614193 15.110241 -0.0057220459
-20.58778 14.975025 -0.0038757324
-20.561523 14.839481 -0.0029563904
-20.526367 14.693695 -0.013948441
-20.509546 14.570347 0.0015068054
-20.478451 14.43045 -0.0044021606
-20.454285 14.300732 0.0012836456
-20.422932 14.16432 -0.0037403107
-20.389542 14.023975 -0.014177322
-20.368059 13.896891 -0.0068054199
-20.340219 13.763472 -0.0090465546
-20.315456 13.635906 -0.0063648224
-20.202209 13.413603 -0.14037132
-20.175102 13.283699 -0.14156723
-20.160761 13.168362 -0.12418747
-20.14724 13.053377 -0.10571861
-20.183464 12.990326 -0.00989151
-20.158077 12.863972 -0.0098838806
-20.137539 12.74197 -0.0030498505
-20.113689 12.618544 -0.00057983398
-20.083485 12.488779 -0.007724762
-20.058281 12.363045 -0.0089759827
-20.035145 12.242189 -0.0051307678
-20.00882 12.117693 -0.0059356689
-19.988895 12.001425 0.0022239685
-19.959055 11.8729 -0.007434845
-19.9361 11.752666 -0.0048503876
-19.915352 11.63604 0.0022163391
-19.89024 11.514086 -0.00033569336
-19.86166 11.391031 -0.0063209534
-19.841415 11.274376 -0.0023727417
-19.816006 11.154016 -0.0033893585
-19.792292 11.036261 -0.0028743744
-19.77124 10.920195 -0.0003452301
-19.741356 10.796721 -0.010702133
-19.721521 10.684235 -0.0038452148
-19.701984 10.57015 0.0014705658
-19.672005 10.449837 -0.0089302063
-19.651852 10.337999 -0.000207901
-19.627035 10.221392 -0.0056476593
-19.610415 10.113489 0.005525589
-19.586079 9.9969425 0.0033664703
-19.552311 9.8751431 -0.014678955
-19.536518 9.7675972 -0.0024147034
-19.512251 9.6538849 -0.0055522919
-19.493654 9.5448837 -0.00077438354
-19.467049 9.428833 -0.0077877045
-19.440327 9.3149967 -0.014522552
-19.4254 9.2096977 -0.0018177032
-19.4035 9.0992718 -0.0014019012
-19.376135 8.9856987 -0.010486603
-19.362223 8.8813763 0.0020503998
-19.34071 8.7741718 0.0057010651
-19.313343 8.6605988 -0.0033836365
-19.292336 8.5533638 -0.0028533936
-19.27034 8.4460964 -0.0024833679
-19.246302 8.3348961 -0.0075302124
-19.227476 8.2303257 -0.0021896362
-19.202496 8.1209831 -0.0080451965
-19.194963 8.0239429 0.013778687
-19.293171 8.0056496 0.21303177
-19.35359 7.9575181 0.35073471
-19.345898 7.8608031 0.37349129
-19.339832 7.7638545 0.39875603
-19.223347 7.5904212 0.2374897
-19.184799 7.4740443 0.210289
-19.174946 7.3756099 0.227911
-19.168791 7.2818217 0.25312996
-19.152996 7.1812177 0.26404572
-19.152306 7.0905747 0.29876709
-19.123581 6.9816356 0.28461266
-19.099655 6.8751607 0.27793694
-19.094992 6.7824111 0.3062706
-19.045372 6.5709624 0.29101563
-19.01022 6.4597926 0.26688004
-18.990818 6.3583217 0.2688942
-18.974743 6.2592206 0.27494431
-18.95302 6.1563544 0.27275467
-18.92967 6.0537219 0.26805878
-18.75309 5.8605218 -0.00073623657
-18.729923 5.7585082 -0.006690979
-18.71357 5.6619477 0.00057220459
-18.686455 5.5587726 -0.012096405
-18.670952 5.4635139 -0.0040683746
-18.648655 5.3637476 -0.0095825195
-18.627003 5.2637167 -0.012750626
-18.610855 5.1687226 -0.0070705414
-18.590048 5.0699935 -0.0094738007
-18.580173 4.9775543 0.0071220398
-18.561066 4.8814287 0.0062503815
-18.538769 4.781662 0.00073242188
-18.513897 4.6839871 -0.0081005096
-18.50005 4.5894408 0.0021095276
-18.482433 4.4943533 0.0043506622
-18.457886 4.396028 -0.0063476563
-18.44142 4.3016829 0.0011959076
-18.419878 4.2063785 -0.0036010742
-18.491116 4.1528692 0.15608215
-18.726173 4.1750984 0.60509872
-18.485481 3.977922 0.21292114
-18.447933 3.7863522 0.21319771
-18.435781 3.6944094 0.22493935
-18.407949 3.5956035 0.20954895
-18.357105 3.4014006 0.18592644
-18.351912 3.3136401 0.21027946
-18.343958 3.1372986 0.26291466
-18.330334 3.0452638 0.27121544
-18.298439 2.9475112 0.24939346
-18.308722 2.8650484 0.30246162
-18.292805 2.7725635 0.30623436
-18.266003 2.6756792 0.29035378
-18.247467 2.583396 0.29145813
-18.223654 2.4885874 0.28180504
-18.212374 2.3988914 0.29398727
-18.182289 2.3015265 0.2734127
-18.165592 2.2105756 0.27544403
-18.146412 2.118556 0.27419853
-18.140556 2.0301144 0.29652977
-18.112995 1.93571 0.27858162
-18.090027 1.8422029 0.26969337
-18.049816 1.7449009 0.23019028
-17.904696 1.6177042 -0.0014915466
-17.881773 1.5260873 -0.011032104
-17.868084 1.438158 -0.0030994415
-17.857468 1.349143 0.011102676
-17.830803 1.2579298 -0.0067329407
-17.811693 1.1687458 -0.0089569092
-17.798141 1.0795455 -0.0016307831
-17.784449 0.9916153 0.0062980652
-17.756958 0.90004587 -0.012628555
-17.747858 0.81301451 0.0043640137
-17.727463 0.72435713 -0.0025577545
-17.710625 0.63467693 7.8201294e-005
-17.696474 0.54762983 0.0044002533
-17.676537 0.45808935 0.0010890961
-17.656624 0.36949444 -0.0025482178
-17.64378 0.28286505 0.0061435699
-17.617783 0.1923337 -0.0096664429
-17.602482 0.10558176 -0.0045700073
-17.588329 0.018535614 -0.00024604797
-17.570045 -0.070292473 -0.0013771057
-17.551144 -0.15791178 -0.0051841736
-17.534994 -0.24596596 -0.00085258484
-17.518387 -0.33313608 -0.00012588501
-17.501778 -0.42030621 0.00059890747
-17.486479 -0.50705814 0.005695343
-17.464634 -0.59486246 -0.004989624
-17.443089 -0.68322611 -0.011137009
-17.432728 -0.76878548 0.000831604
-17.411549 -0.85590839 -0.0078296661
-17.396067 -0.9432807 -0.0014743805
-17.372591 -1.0308537 -0.014667511
-17.36138 -1.1177139 -0.0034637451
-17.341532 -1.2034745 -0.0080814362
-17.327404 -1.2895751 -0.0040836334
-17.30735 -1.3769007 -0.0071144104
-17.286999 -1.4636669 -0.014684677
-17.295904 -1.5493832 0.034988403
-17.291557 -1.6358418 0.060110092
-17.302578 -1.7217288 0.11557007
-17.302296 -1.8092408 0.14712143
-17.300247 -1.8952508 0.17677307
-15.196975 -1.9521227 -3.8993244
-15.129168 -2.022089 -4.0056877
-15.024343 -2.0897598 -4.1846752
-14.955253 -2.1581616 -4.2896576
-14.879868 -2.2241602 -4.4126587
-14.810339 -2.2907343 -4.5215759
-14.741681 -2.3550611 -4.6300526
-14.690959 -2.4209075 -4.7048683
-14.492384 -2.4750571 -5.0720901
-14.393642 -2.5338497 -5.2402534
-14.299995 -2.5917745 -5.4024734
-14.236665 -2.6516862 -5.500845
-14.220779 -2.7155528 -5.5091972
-14.274574 -2.7883039 -5.3758469
-14.232945 -2.849194 -5.4325867
-14.136288 -2.9031982 -5.6020603
-14.102331 -2.9642739 -5.6434669
-14.092968 -3.0280337 -5.6357117
-14.081631 -3.0928917 -5.6343517
-14.088529 -3.1598287 -5.5947933
-14.095404 -3.2277102 -5.5549088
-14.10848 -3.2958717 -5.50313
-15.101023 -3.5478868 -3.4739895
-14.735263 -3.5514636 -4.1848392
-14.433352 -3.5624061 -4.7684002
-14.06327 -3.5555391 -5.4922199
-13.734962 -3.550395 -6.1352901
-13.501646 -3.5611882 -6.584774
-13.277973 -3.5721064 -7.0186081
-13.217414 -3.6186619 -7.1179419
-13.168385 -3.6680236 -7.1939259
-12.909363 -3.6611042 -7.7012253
-12.650429 -3.6504042 -8.2098265
-12.404562 -3.6395822 -8.6926174
-12.239243 -3.6480737 -9.0110292
-12.043512 -3.6444764 -9.3946877
-11.871712 -3.6442428 -9.7312069
-21.500572 20.116343 -0.0071735382
-21.463291 19.943054 -0.012155533
-21.433971 19.78187 -0.0060405731
-21.396027 19.607903 -0.013046265
-21.369825 19.454462 -0.0026550293
-21.333324 19.286583 -0.0072441101
-21.300148 19.121075 -0.0077934265
-21.266216 18.958044 -0.010412216
-21.234783 18.797029 -0.010082245
-21.201263 18.638166 -0.0097942352
-21.1721 18.483597 -0.0059585571
-21.138741 18.324409 -0.0065994263
-21.107422 18.168118 -0.007900238
-21.077595 18.012867 -0.0060844421
-21.041275 17.852551 -0.013280869
-21.01305 17.703062 -0.0099830627
-20.98481 17.552628 -0.0063591003
-20.957275 17.404768 -0.0013656616
-20.921318 17.245689 -0.011075974
-20.893002 17.099361 -0.0078239441
-20.862484 16.949425 -0.0090579987
-20.829464 16.797474 -0.013237
-20.800507 16.651409 -0.012334824
-20.780823 16.517864 0.0040378571
-20.740799 16.35984 -0.012102127
-20.716751 16.220966 -0.0053520203
-20.686323 16.074808 -0.0078887939
-20.65897 15.934509 -0.0055007935
-20.63343 15.794598 -0.0018615723
-20.607616 15.657223 0.002986908
-20.577278 15.514849 -0.00085258484
-20.545403 15.369543 -0.0071563721
-20.522984 15.237377 0.00075531006
-20.491657 15.094971 -0.0032424927
-20.46373 14.957771 -0.0041809082
-20.437317 14.822552 -0.0023288727
-20.408009 14.682098 -0.0066642761
-20.386873 14.556347 0.0045948029
-20.351921 14.412128 -0.0079803467
-20.323898 14.278088 -0.0089645386
-20.21788 14.057425 -0.13156891
-20.189194 13.922703 -0.13457489
-20.164568 13.793869 -0.13249779
-20.154011 13.680017 -0.10747528
-20.194942 13.622589 -0.0042171478
-20.165792 13.488752 -0.010831833
-20.144218 13.364828 -0.0035057068
-20.118122 13.235903 -0.0048694611
-20.103779 13.120564 0.012512207
-20.065792 12.979319 -0.0069885254
-20.039583 12.852608 -0.0080718994
-20.016537 12.72859 -0.0041847229
-19.980661 12.594118 -0.019245148
-19.964848 12.478685 -0.0053043365
-19.941853 12.356562 -0.0020675659
-19.911161 12.226734 -0.012495041
-19.889011 12.105911 -0.0084953308
-19.873243 11.992369 0.0047931671
-19.847122 11.86944 0.0024089813
-19.819622 11.743254 -0.0033721924
-19.793388 11.62254 -0.0054759979
-19.77227 11.503637 -0.0019683838
-19.745525 11.381914 -0.0070323944
-19.730469 11.270945 0.0076274872
-19.698215 11.144188 -0.0062828064
-19.674503 11.026432 -0.0057659149
-19.647785 10.905655 -0.011154175
-19.631119 10.795862 0.00067520142
-19.602081 10.673691 -0.0089187622
-19.575222 10.554184 -0.013696671
-19.562756 10.449011 0.0026035309
-19.535234 10.328821 -0.0041999817
-19.514778 10.217543 -1.9073486e-005
-19.487461 10.098919 -0.0084056854
-19.46331 9.9829922 -0.011821747
-19.44437 9.8736954 -0.0048522949
-19.422581 9.7610531 -0.0047168732
-19.403645 9.6517563 0.0022506714
-19.377886 9.5370064 -0.0039978027
-19.357475 9.427618 -0.00046730042
-19.331741 9.3138142 -0.0070419312
-19.312984 9.2051373 -0.0013332367
-19.290783 9.0963058 0.00062179565
-19.261904 8.980751 -0.01125145
-19.248676 8.8780537 0.0029830933
-19.226154 8.768837 0.00072288513
-19.19413 8.6515312 -0.016443253
-19.180927 8.5497799 -0.002532959
-19.162258 8.4448833 0.0018730164
-19.141068 8.3370285 0.0036621094
-19.114758 8.2263241 -0.0062408447
-19.09127 8.1180191 -0.0089855194
-19.10006 8.0345192 0.040967941
-19.18961 8.0094414 0.22607613
-19.392483 8.0660839 0.603899
-19.151613 7.7989669 0.23286819
-19.123991 7.6888804 0.22467232
-19.106197 7.5862327 0.2295208
-19.076603 7.4750466 0.21492958
-19.057131 7.3707395 0.2179184
-19.068398 7.2883077 0.27114487
-19.052763 7.1873784 0.28112984
-19.010904 6.9795241 0.27990723
-19.008055 6.8871617 0.30949211
-18.977701 6.7784553 0.29282951
-18.951458 6.6705861 0.28195
-18.944656 6.5770621 0.30482101
-18.914328 6.4693007 0.28783607
-18.888771 6.3630576 0.27865028
-18.851482 6.2511144 0.24905014
-18.874023 6.1763039 0.32516479
-18.833614 6.0635548 0.2899437
-18.649734 5.8648405 0.0046482086
-18.627234 5.7635088 0.00071716309
-18.601768 5.6610465 -0.0097675323
-18.582592 5.5620847 -0.0096645355
-18.567093 5.4668264 -0.0016365051
-18.547112 5.3684535 -0.002948761
-18.524654 5.2690129 -0.0075321198
-18.509472 5.1731033 -0.001367569
-18.491653 5.0764499 0.0024585724
-18.467747 4.9778614 -0.0058937073
-18.451923 4.8822165 -0.0020771027
-18.434952 4.7868648 0.0025119781
-18.41419 4.6900263 -0.00053977966
-18.394741 4.593606 0.00077438354
-18.370697 4.4962869 -0.0069675446
-18.358707 4.4040194 0.0038414001
-18.336292 4.3064671 -0.0013980865
-18.317207 4.211287 -0.0025939941
-18.379034 4.1534715 0.14087677
-18.619076 4.1798201 0.6021862
-18.405933 3.9939375 0.25695038
-18.369009 3.8901753 0.22348595
-18.34515 3.7934766 0.21448517
-18.331482 3.6995502 0.22343826
-18.301537 3.6009159 0.20225906
-18.282959 3.506742 0.20401764
-18.261738 3.4107871 0.19735527
-18.253395 3.3212762 0.21641541
-18.27277 3.2437701 0.2875576
-18.253548 3.1498599 0.28696632
-18.22443 3.0515819 0.26688194
-18.208351 2.9594221 0.27158356
-18.195557 2.867743 0.28097725
-18.17948 2.7755833 0.28567886
-18.158142 2.6818442 0.27929878
-18.138277 2.5881972 0.27635765
-18.134712 2.5002055 0.30321884
-18.105501 2.405087 0.28308868
-18.088757 2.3122458 0.2857666
-18.073368 2.2217131 0.29216766
-18.034283 2.1231725 0.25221825
-18.003578 2.0270166 0.2289753
-17.885204 1.9047606 0.044164658
-17.844994 1.8074598 0.0046615601
-17.820602 1.7157507 -0.0083179474
-17.807739 1.6281765 0.0007019043
-17.792534 1.5382636 0.0058460236
-17.769634 1.4475927 -0.0040206909
-17.749008 1.356425 -0.0090293884
-17.730059 1.2669153 -0.012184143
-17.721302 1.1801789 0.0026168823
-17.699875 1.0895996 -0.0038089752
-17.682255 1.0014544 -0.0029163361
-17.663952 0.91168022 -0.0037212372
-17.646814 0.82255888 -0.0056266785
-17.630024 0.73476839 -0.0036430359
-17.611073 0.64525843 -0.0067996979
-17.596737 0.55759192 -0.0012168884
-17.57896 0.46977091 0.00060653687
-17.560837 0.38061762 -0.0014533997
-17.545538 0.2938652 0.0036430359
-17.524315 0.2048521 -0.004365921
-17.509174 0.11777449 -0.00020217896
-17.489603 0.029474258 -0.006029129
-17.472813 -0.058316231 -0.0040473938
-17.450947 -0.14706564 -0.014404297
-17.436451 -0.2344079 -0.0078926086
-17.422138 -0.32112789 -0.0026359558
-17.401787 -0.40789461 -0.01020813
-17.386625 -0.4959178 -0.0057182312
-17.367743 -0.58259153 -0.0098495483
-17.354074 -0.66957712 -0.002243042
-17.339762 -0.75629759 0.0030117035
-17.315483 -0.84328127 -0.01159668
-17.295429 -0.93060637 -0.014631271
-17.292738 -1.0163522 0.012672424
-17.300014 -1.1018362 0.059839249
-17.304348 -1.1875043 0.10012627
-17.30216 -1.2722445 0.13038063
-17.304981 -1.3598957 0.16788101
-17.299004 -1.4461231 0.19049263
-17.284672 -1.5337887 0.19607353
-17.280506 -1.6196275 0.21993828
-17.260799 -1.7066579 0.21471405
-17.243364 -1.7941842 0.21434784
-17.229052 -1.8809056 0.21960258
-15.139224 -1.9406538 -3.8639069
-15.064575 -2.0100765 -3.9845123
-14.960554 -2.0783353 -4.1620827
-14.888063 -2.1460395 -4.2775517
-14.836492 -2.2131877 -4.3531342
-14.747234 -2.2787204 -4.5033627
-14.681838 -2.3435121 -4.6068249
-14.639615 -2.4091887 -4.6652164
-14.449835 -2.4647641 -5.0175514
-14.339195 -2.5230284 -5.2126236
-14.27453 -2.5843029 -5.3150406
-14.203897 -2.6427875 -5.4312592
-14.176253 -2.7063584 -5.4610519
-14.154007 -2.7696209 -5.4803677
-14.145609 -2.8342934 -5.4721298
-14.087537 -2.8936625 -5.5654926
-14.066782 -2.9558864 -5.5816956
-14.047636 -3.0192876 -5.5950623
-14.042155 -3.0847201 -5.5796185
-14.049054 -3.1516571 -5.5400581
-14.059835 -3.2202668 -5.4928093
-14.07128 -3.2881966 -5.4435387
-14.738811 -3.5523009 -4.0305023
-14.413195 -3.5584054 -4.6691818
-14.065228 -3.5563273 -5.3531933
-13.714344 -3.5465474 -6.0457573
-13.471767 -3.5560684 -6.5198116
-13.226184 -3.5616693 -7.0011177
-13.161238 -3.6075578 -7.1110945
-13.107683 -3.6549811 -7.1971188
-12.909063 -3.6635613 -7.5856094
-12.644456 -3.6516676 -8.1095543
-12.40233 -3.6422853 -8.590126
-12.21967 -3.6455066 -8.9466228
-12.020998 -3.6420946 -9.3371592
-11.857971 -3.6442323 -9.6584673
-21.369461 20.085316 -0.0049629211
-21.337044 19.917326 -0.0034446716
-21.302334 19.74889 -0.0064582825
-21.274551 19.59063 0.0021190643
-21.239014 19.421837 -0.0019817352
-21.204597 19.259785 -0.0018062592
-21.165203 19.086666 -0.01257515
-21.135309 18.928581 -0.0097846985
-21.104565 18.769192 -0.0077590942
-21.069988 18.606426 -0.012727737
-21.045395 18.45875 -0.00085449219
-21.012516 18.298588 -0.0042915344
-20.981863 18.142979 -0.0035686493
-20.948021 17.98373 -0.0074901581
-20.918947 17.832939 -0.0049591064
-20.887672 17.678541 -0.0069103241
-20.848988 17.514938 -0.017658234
-20.824162 17.370655 -0.011301041
-20.794975 17.222082 -0.0084877014
-20.76292 17.069218 -0.012184143
-20.734631 16.923836 -0.0092563629
-20.708836 16.780468 -0.0033855438
-20.676849 16.630438 -0.0080566406
-20.646378 16.482391 -0.0099411011
-20.616776 16.336592 -0.011386871
-20.586369 16.19138 -0.014249802
-20.563839 16.054487 -0.0047111511
-20.537312 15.914543 -0.0012321472
-20.50943 15.772293 -0.0014743805
-20.480585 15.630955 -0.002199173
-20.447905 15.486238 -0.0099182129
-20.421562 15.346916 -0.0076961517
-20.395285 15.210428 -0.0064525604
-20.364969 15.068996 -0.01061821
-20.339222 14.93446 -0.0067462921
-20.245693 14.723961 -0.10821342
-20.197956 14.564232 -0.13903809
-20.175629 14.435848 -0.13243294
-20.165348 14.319454 -0.1086216
-20.16503 14.217207 -0.067644119
-20.18298 14.134558 0.00075912476
-20.158447 14.002562 0.0028800964
-20.129116 13.868105 -0.0024738312
-20.094095 13.727991 -0.015420914
-20.071831 13.60244 -0.0097923279
-20.048054 13.474909 -0.0069503784
-20.022097 13.344711 -0.0089168549
-19.998203 13.219395 -0.0057964325
-19.970615 13.08943 -0.010274887
-19.948078 12.966419 -0.0034313202
-19.924368 12.841722 -0.0015697479
-19.897469 12.713385 -0.0043487549
-19.868271 12.584599 -0.011657715
-19.850803 12.468452 9.9182129e-005
-19.823101 12.340704 -0.0040969849
-19.80196 12.220856 -0.00026512146
-19.771271 12.09103 -0.010688782
-19.748983 11.971478 -0.0060825348
-19.724537 11.850204 -0.0066127777
-19.703419 11.731302 -0.0031051636
-19.681337 11.613316 -8.2015991e-005
-19.659233 11.494381 0.0032653809
-19.627808 11.367981 -0.009552002
-19.607422 11.252594 -0.0050010681
-19.58353 11.134218 -0.0032272339
-19.561651 11.017796 -0.0017871857
-19.538927 10.90007 -0.0011138916
-19.516085 10.784563 -0.00015830994
-19.490238 10.666031 -0.0051059723
-19.466042 10.548214 -0.0078697205
-19.446392 10.436346 -0.0022735596
-19.42355 10.320837 -0.0013198853
-19.404083 10.209589 0.0030212402
-19.379795 10.094933 0.000207901
-19.371162 9.9931335 0.023506165
-19.372055 9.9003677 0.061384201
-19.381422 9.8137684 0.11466408
-19.290653 9.6433544 0.0007610321
-19.267902 9.5316257 0.0004119873
-19.236473 9.4121647 -0.013755798
-19.22341 9.309145 -0.00045394897
-19.204651 9.2004681 0.0052585602
-19.181278 9.0899487 0.0022335052
-19.157747 8.9797535 0.00014305115
-19.129028 8.8638744 -0.01266098
-19.111992 8.7587452 -0.0057468414
-19.089287 8.6489067 -0.0067443848
-19.079433 8.5504723 0.010875702
-19.050598 8.4368076 -0.0016479492
-19.027939 8.3288593 -0.0032997131
-19.015583 8.2284107 0.011371613
-18.986771 8.1156921 -0.0014762878
-18.997074 8.034174 0.051265717
-19.072348 7.9994893 0.21366119
-19.060501 7.9000468 0.23128891
-19.027737 7.7861657 0.21172714
-19.010057 7.6813006 0.21629524
-18.98978 7.5775819 0.2178688
-18.961864 7.4680552 0.20513153
-18.951851 7.369945 0.22368622
-18.964451 7.288877 0.28095627
-18.936693 7.1790242 0.26729012
-18.917427 7.076282 0.26869774
-18.898666 6.9745469 0.27305984
-18.878738 6.8711238 0.27244568
-18.871754 6.7769799 0.29657364
-18.850996 6.6732001 0.29486847
-18.828447 6.5699782 0.29158401
-18.802917 6.4646802 0.28207779
-18.791985 6.3693748 0.29949379
-18.767139 6.2657027 0.29167938
-18.708939 6.1393204 0.22488976
-18.686594 6.0376639 0.22002602
-18.540482 5.8609023 -0.0020465851
-18.515015 5.75844 -0.012535095
-18.502659 5.6649313 0.00078964233
-18.477999 5.5618801 -0.0082798004
-18.461187 5.4662037 -0.0046215057
-18.442701 5.3688693 -0.0028209686
-18.422058 5.2698154 -0.006155014
-18.4021 5.172389 -0.0077915192
-18.386757 5.0768042 -0.00069618225
-18.362164 4.9765887 -0.010742188
-18.349693 4.8852963 0.0028610229
-18.330563 4.7882252 0.0023155212
-18.306658 4.6896362 -0.0060348511
-18.292992 4.5957098 0.0029182434
-18.272253 4.4998174 -0.00046348572
-18.254639 4.4047294 0.0017795563
-18.2339 4.308836 -0.0016040802
-18.221085 4.2162113 0.0081176758
-18.263439 4.1500463 0.11681366
-18.506626 4.1791821 0.58949661
-18.300417 3.9955001 0.25112534
-18.270428 3.8949752 0.23059845
-18.254326 3.8018708 0.23562813
-18.236872 3.7064576 0.23693657
-18.19949 3.6046152 0.20594025
-18.195122 3.5172114 0.23138809
-18.163662 3.416594 0.20742416
-18.152382 3.3268971 0.21960258
-18.166771 3.2452722 0.27845192
-18.124401 3.0572348 0.27022743
-18.102375 2.9618688 0.26214981
-18.101131 2.8752704 0.29321861
-18.072033 2.7779374 0.27280617
-18.045256 2.6819983 0.25659943
-18.031681 2.5918527 0.26424789
-17.950554 2.4767528 0.14880562
-17.84938 2.3564014 -0.004737854
-17.831188 2.2644124 -0.0058250427
-17.812881 2.1746397 -0.0066318512
-17.799009 2.0860898 0.0025596619
-17.781483 1.9947829 0.0034980774
-17.761684 1.9039714 -0.0004234314
-17.745995 1.8139977 0.0014400482
-17.726864 1.7238677 -0.00045585632
-17.706421 1.6333203 -0.0067234039
-17.690411 1.5439956 -0.0029983521
-17.672264 1.4538975 -0.0047359467
-17.654118 1.3637996 -0.0064716339
-17.648167 1.2785182 0.015813828
-17.616886 1.1854622 -0.010757446
-17.604664 1.0976243 0.00061225891
-17.587528 1.0085025 -0.001291275
-17.570713 0.9197669 0.0010166168
-17.551624 0.83152866 -0.0015296936
-17.535639 0.7431488 0.0018692017
-17.515884 0.65422869 -0.0027008057
-17.504673 0.56736755 0.0085029602
-17.481956 0.47731686 -0.0026226044
-17.457472 0.38876724 -0.015645981
-17.447912 0.30261946 -0.0022621155
-17.438332 0.21552658 0.011447906
-17.410057 0.12549067 -0.0092220306
-17.394117 0.039002419 -0.0064716339
-17.375349 -0.049887657 -0.010883331
-17.363173 -0.13583374 -0.00016593933
-17.344269 -0.223454 -0.0039710999
-17.32782 -0.31094837 -0.0041770935
-17.309742 -0.39821196 -0.006893158
-17.292629 -0.48535156 -0.0030479431
-17.293886 -0.56993532 0.030967712
-17.298702 -0.65554333 0.074533463
-17.305357 -0.73981762 0.11902809
-17.314125 -0.82426405 0.16930771
-17.306656 -0.91152811 0.18880463
-17.293171 -0.99789238 0.19515038
-17.285862 -1.0854812 0.21372032
-17.274651 -1.1723418 0.22492027
-17.253311 -1.2591405 0.2171917
-17.244534 -1.3468223 0.23231888
-17.231693 -1.4334507 0.24101257
-17.203648 -1.5209756 0.21843719
-17.184603 -1.6073251 0.21523666
-17.17585 -1.6940618 0.23003769
-17.184204 -1.7816372 0.28348541
-17.172993 -1.8684988 0.29468727
-15.077526 -1.930346 -3.8351994
-14.98687 -2.0000768 -3.9884968
-14.900024 -2.0673761 -4.1344757
-14.810883 -2.1351252 -4.2849827
-14.757177 -2.2030468 -4.3660278
-14.688818 -2.2689686 -4.4760437
-14.610376 -2.3329377 -4.6056423
-14.566843 -2.3990326 -4.6684055
-14.407078 -2.456037 -4.9614296
-14.299055 -2.514502 -5.1538334
-14.23554 -2.5760703 -5.2570229
-14.158198 -2.6352816 -5.388092
-14.154372 -2.7000017 -5.3704681
-14.124914 -2.7639604 -5.4015102
-14.076626 -2.8236871 -5.4737511
-14.046247 -2.8858781 -5.5120068
-14.020924 -2.9480553 -5.5375938
-14.021805 -3.0140929 -5.5111885
-14.00948 -3.0789819 -5.5099869
-14.020123 -3.1463223 -5.4621315
-14.025528 -3.2142973 -5.4256878
-14.041039 -3.2832799 -5.3699837
-14.738432 -3.5533557 -3.8831978
-14.385 -3.5554581 -4.5827866
-14.0439 -3.5540147 -5.258955
-13.706838 -3.5476279 -5.9297161
-13.463941 -3.5575356 -6.4079838
-13.198694 -3.5592608 -6.9315796
-13.107956 -3.5981584 -7.0967188
-13.057639 -3.6469922 -7.1774006
-12.894412 -3.6645775 -7.4944267
-12.636646 -3.654263 -8.0102043
-12.399391 -3.6465235 -8.4829273
-12.205886 -3.6463494 -8.8671541
-12.012266 -3.643959 -9.2511005
-11.8364 -3.6437092 -9.6001291
-11.6705 -3.6431971 -9.9292927
-21.234833 20.058235 -0.0068836212
-21.203955 19.893175 -0.0029029846
-21.171768 19.727697 -0.0032920837
-21.135357 19.556656 -0.0078392029
-21.101379 19.391739 -0.009803772
-21.073826 19.235989 -0.0031337738
-21.040676 19.071426 -0.0040111542
-21.010481 18.914934 0.00031661987
-20.971958 18.744064 -0.01001358
-20.943645 18.590797 -0.0054111481
-20.911457 18.432262 -0.0071525574
-20.876053 18.269138 -0.013210297
-20.848612 18.118118 -0.0081691742
-20.817295 17.961826 -0.0094718933
-20.786846 17.807785 -0.010332108
-20.757935 17.65667 -0.008731842
-20.725674 17.502239 -0.010843277
-20.697498 17.354641 -0.0081996918
-20.667095 17.202488 -0.0097103119
-20.644655 17.062437 -0.00012779236
-20.609272 16.9072 -0.0078620911
-20.578247 16.756256 -0.012048721
-20.550507 16.613773 -0.006816864
-20.520035 16.465725 -0.0087032318
-20.494473 16.324867 -0.004737854
-20.46574 16.181314 -0.0057449341
-20.43396 16.032848 -0.012001038
-20.410645 15.897491 -0.0042057037
-20.385796 15.759207 0.0011310577
-20.357109 15.617542 -0.00053024292
-20.260715 15.395813 -0.10715675
-20.207378 15.227268 -0.14552498
-20.189157 15.09972 -0.13313866
-20.169769 14.971519 -0.11964989
-20.167225 14.864716 -0.082832336
-20.195391 14.792727 0.0018501282
-20.165648 14.655136 -0.00033760071
-20.135559 14.516218 -0.0064144135
-20.110018 14.383245 -0.0041236877
-20.080801 14.246572 -0.0097618103
-20.060858 14.122417 7.4386597e-005
-20.029968 13.984085 -0.0074195862
-20.008507 13.857948 -0.00037002563
-19.980852 13.725147 -0.0038719177
-19.943829 13.582989 -0.022886276
-19.933319 13.471027 0.0014839172
-19.907204 13.341156 0.00044822693
-19.88028 13.211872 -0.0020065308
-19.854366 13.083565 -0.0046272278
-19.83215 12.959906 0.00035095215
-19.799053 12.824905 -0.012973785
-19.782896 12.709179 0.0031528473
-19.755375 12.582048 -0.0023002625
-19.730194 12.457258 -0.0038776398
-19.704853 12.332794 -0.0045185089
-19.681213 12.210934 -0.0036315918
-19.655205 12.085787 -0.0062999725
-19.637257 11.969582 0.0021762848
-19.61047 11.845968 -0.0022315979
-19.587536 11.726679 2.6702881e-005
-19.5616 11.604366 -0.0036182404
-19.54351 11.489431 0.0054664612
-19.515415 11.365402 -0.0033168793
-19.491863 11.24732 -0.0037326813
-19.469803 11.130278 -0.0010356903
-19.443611 11.011452 -0.0037937164
-19.421736 10.895029 -0.0023536682
-19.402359 10.780621 0.0020313263
-19.381035 10.667093 0.0057754517
-19.376373 10.567404 0.035455704
-19.375591 10.472979 0.071475983
-19.385094 10.385109 0.12415314
-19.377312 10.284613 0.14821434
-19.377356 10.190546 0.18532562
-19.359358 10.079391 0.1931057
-19.356236 9.9826279 0.22524834
-19.325773 9.8622551 0.21156693
-19.181126 9.6440296 0.0074291229
-19.15539 9.5302258 0.00085449219
-19.130299 9.4161568 -0.0033779144
-19.109909 9.3077145 -0.00017356873
-19.088995 9.1973171 0.00040435791
-19.067116 9.0878353 0.0004940033
-19.045395 8.9780293 -0.00034713745
-19.016518 8.8624744 -0.012220383
-19.001154 8.7590046 -0.0034484863
-18.979458 8.6501408 -0.0046157837
-18.958611 8.5425816 -0.0050182343
-18.942951 8.4407063 0.0052928925
-18.921921 8.3325272 0.0061473846
-18.897123 8.2238045 -0.00096893311
-18.87779 8.118227 0.00141716
-18.883413 8.032032 0.046401978
-18.964035 8.0027065 0.21857834
-19.12937 8.0340042 0.53869438
-18.918919 7.7883763 0.2136879
-18.905739 7.6875701 0.22727203
-18.883123 7.5815129 0.22496796
-18.857681 7.4730544 0.21550369
-18.84005 7.3700805 0.21941948
-18.85499 7.2913508 0.28056908
-18.835543 7.1879888 0.28323555
-18.811619 7.0815139 0.27656174
-18.781719 6.8818707 0.29384804
-18.735111 6.7624602 0.24808121
-18.692451 6.6442103 0.20902443
-18.675549 6.5447526 0.21398544
-18.655849 6.4448762 0.21753693
-18.625172 6.3357835 0.19666672
-18.604965 6.2349019 0.19726372
-18.60051 6.1437173 0.22401237
-18.580643 6.0431294 0.22241974
-18.451773 5.8771029 0.029611588
-18.414692 5.7667246 -0.0015735626
-18.391565 5.6666017 -0.0081806183
-18.372391 5.5676408 -0.0080738068
-18.350254 5.4675488 -0.014522552
-18.333282 5.3721972 -0.0099334717
-18.319595 5.2773266 -0.00065612793
-18.306595 5.184082 0.010320663
-18.276512 5.0797758 -0.0089015961
-18.261059 4.9864078 -0.0015239716
-18.244246 4.8907309 0.0021362305
-18.226768 4.794373 0.0037670135
-18.20587 4.6988053 0.0013198853
-18.186901 4.601409 -0.00015830994
-18.162189 4.5034084 -0.0099258423
-18.154173 4.4132476 0.0072689056
-18.131115 4.3159604 -0.00031471252
-18.114349 4.2221742 0.0026912689
-18.144169 4.1508961 0.089553833
-18.381596 4.1784825 0.55427551
-18.1952 4.0034461 0.24848557
-18.151318 3.8955007 0.20240593
-18.159164 3.813859 0.25154877
-18.119946 3.7096477 0.21355629
-18.108459 3.6183863 0.22731972
-18.092381 3.526226 0.23202324
-18.060118 3.4261975 0.20664215
-18.050468 3.3362689 0.22133064
-18.059258 3.252768 0.27128601
-18.021597 3.1524291 0.23542213
-17.975508 3.0478168 0.18351364
-17.862995 2.9170079 0.008058548
-17.843174 2.8252521 0.0044670105
-17.82333 2.7325506 0.0011997223
-17.804152 2.6405306 -4.3869019e-005
-17.785156 2.5491309 -0.0025463104
-17.769283 2.4585366 0.00057220459
-17.747328 2.3660059 -0.0084838867
-17.734924 2.2775483 0.0041427612
-17.711496 2.184926 -0.0083503723
-17.699276 2.0970883 0.0030193329
-17.669418 2.0022342 -0.019460678
-17.659172 1.9144602 -0.0077705383
-17.646263 1.824996 0.0019016266
-17.622696 1.7336431 -0.0099887848
-17.609165 1.6453879 -0.0029907227
-17.59086 1.5556145 -0.0037975311
-17.588348 1.4704895 0.022249222
-17.555393 1.3757744 -0.0061779022
-17.540234 1.2877517 -0.0016899109
-17.519814 1.1981499 -0.0082798004
-17.506948 1.1105762 0.00073814392
-17.487196 1.0216551 -0.0038318634
-17.474308 0.93313694 0.0055160522
-17.450787 0.84367371 -0.007024765
-17.440403 0.75716972 0.0052700043
-17.419823 0.66789293 -0.00039291382
-17.401722 0.57968473 -0.0027809143
-17.38656 0.4916625 0.0017089844
-17.367817 0.40371752 -0.0030288696
-17.345787 0.31529284 -0.012454987
-17.328997 0.22750282 -0.010471344
-17.321068 0.14112234 0.0054225922
-17.301359 0.05409193 0.00020027161
-17.284889 -0.034348488 0.00031661987
-17.305161 -0.11560345 0.072925568
-17.309334 -0.20094728 0.11414337
-17.312544 -0.2853775 0.1548748
-17.308865 -0.37115431 0.18202209
-17.300755 -0.45815516 0.19916916
-17.282673 -0.54541779 0.196455
-17.276033 -0.63232613 0.21704483
-17.262043 -0.71969652 0.220438
-17.239231 -0.8065877 0.20926666
-17.226368 -0.8941617 0.21828651
-17.209759 -0.98133135 0.21901321
-17.192486 -1.0691829 0.21771812
-17.174408 -1.156446 0.21500015
-17.189373 -1.2411709 0.27717781
-17.180595 -1.3288527 0.29230118
-17.145145 -1.5898223 0.32466125
-17.131479 -1.6768079 0.33226585
-17.099667 -1.7648745 0.30171585
-15.021614 -1.9165063 -3.7927818
-14.891479 -1.9851022 -4.0283756
-14.837566 -2.0545893 -4.1078377
-14.76264 -2.122509 -4.2333069
-14.688057 -2.1890969 -4.3548908
-14.633087 -2.2555466 -4.4409599
-14.560823 -2.3207397 -4.5583382
-14.510446 -2.386292 -4.6353455
-14.369604 -2.4447842 -4.8945484
-14.265508 -2.5030327 -5.0799141
-14.20197 -2.565546 -5.1827793
-14.110619 -2.6230216 -5.3404713
-14.082516 -2.6857085 -5.3738689
-14.077196 -2.7514672 -5.3593578
-14.032144 -2.812603 -5.4262581
-14.005351 -2.8748727 -5.455286
-13.9984 -2.9403982 -5.4432812
-13.987729 -3.0045748 -5.4398975
-13.98567 -3.0707979 -5.420372
-13.985563 -3.1368666 -5.3941231
-14.000064 -3.2068248 -5.338253
-14.016218 -3.2760715 -5.280201
-14.06485 -3.3525262 -5.1518135
-14.069567 -3.4221277 -5.1170654
-14.105496 -3.4974656 -5.0170021
-14.031252 -3.5498753 -5.1434746
-13.717571 -3.5497503 -5.7693996
-13.455357 -3.5554876 -6.2921476
-13.232185 -3.5674725 -6.7351789
-13.071302 -3.5896592 -7.0469761
-12.9999 -3.6328197 -7.1740408
-12.897836 -3.667346 -7.3641129
-12.629045 -3.6542568 -7.9063625
-12.392453 -3.6468723 -8.3831387
-12.191645 -3.6452711 -8.7852144
-12.001606 -3.6439962 -9.1660099
-11.829 -3.6442113 -9.5100231
-11.668772 -3.6459303 -9.8299208
-21.185684 20.266293 0.062299728
-21.107323 20.033978 -0.003194809
-21.070181 19.859421 -0.0087852478
-21.039528 19.696871 -0.0067138672
-21.005644 19.52879 -0.0086364746
-20.978069 19.372097 -0.0016365051
-20.946636 19.211082 -0.0013122559
-20.908089 19.039268 -0.011316299
-20.878885 18.882807 -0.0068283081
-20.848694 18.726316 -0.0025005341
-20.817327 18.568134 -0.0031509399
-20.785137 18.409599 -0.0048885345
-20.751568 18.24781 -0.010023117
-20.715385 18.086222 -0.017824173
-20.690468 17.938158 -0.010164261
-20.664589 17.791012 -0.0029850006
-20.629597 17.63102 -0.012212753
-20.601376 17.481529 -0.0089149475
-20.573198 17.333931 -0.006269455
-20.543646 17.183083 -0.007019043
-20.517164 17.038086 -0.0028419495
-20.479763 16.87986 -0.016317368
-20.454956 16.736525 -0.010286331
-20.42976 16.597946 -0.0027618408
-20.397913 16.446644 -0.0080394745
-20.36916 16.302145 -0.0087203979
-20.331686 16.148026 -0.022567749
-20.230452 15.914999 -0.13467026
-20.201767 15.773336 -0.13632965
-20.180286 15.639313 -0.12760925
-20.17366 15.525677 -0.095546722
-20.174076 15.420002 -0.052173615
-20.179199 15.319954 -0.001373291
-20.156273 15.186783 0.0035858154
-20.120586 15.039047 -0.010038376
-20.096674 14.905842 -0.005241394
-20.074482 14.776188 0.0007610321
-20.042835 14.633394 -0.0074481964
-20.012314 14.497337 -0.011381149
-19.994804 14.372362 0.0023784637
-19.960056 14.22971 -0.011781693
-19.938597 14.103571 -0.0047340393
-19.912436 13.971807 -0.0051212311
-19.887947 13.841703 -0.0036487579
-19.862629 13.711243 -0.0032711029
-19.832657 13.577047 -0.010974884
-19.808235 13.44978 -0.010480881
-19.778927 13.316267 -0.016162872
-19.757557 13.193909 -0.010421753
-19.740185 13.074604 0.0013828278
-19.713444 12.945938 -0.00233078
-19.684225 12.816208 -0.0093135834
-19.665359 12.695864 -0.00062179565
-19.638184 12.570066 -0.0021915436
-19.609169 12.441898 -0.010759354
-19.588835 12.321463 -0.0055103302
-19.564365 12.199244 -0.0057144165
-19.543205 12.078453 -0.0015563965
-19.511894 11.949835 -0.01465416
-19.500004 11.841562 0.0049762726
-19.474018 11.717361 0.0019817352
-19.450603 11.598009 0.00095748901
-19.42065 11.471701 -0.0084209442
-19.408966 11.364992 0.0096244812
-19.383209 11.243301 0.0047225952
-19.383049 11.147669 0.043420792
-19.381716 11.050348 0.077138901
-19.384884 10.957087 0.11987305
-19.392277 10.870426 0.1728363
-19.386791 10.770378 0.20142746
-19.372742 10.660385 0.21591949
-19.359425 10.553907 0.23145676
-19.336056 10.436447 0.22978401
-19.319736 10.326948 0.23941803
-19.292416 10.208326 0.23103142
-19.263424 10.088045 0.22078705
-19.281487 10.010122 0.28756332
-19.22699 9.8675632 0.23241806
-19.069164 9.6375484 0.005443573
-19.04809 9.5274773 0.0069503784
-19.020998 9.4113655 -0.0033435822
-19.00378 9.3056164 0.0048274994
-18.974051 9.1887608 -0.0078086853
-18.956993 9.0826874 -0.00056648254
-18.930634 8.9700928 -0.0098190308
-18.911922 8.863306 -0.0047569275
-18.892569 8.7567844 -0.0020465851
-18.866188 8.6432438 -0.010972977
-18.848349 8.5387039 -0.0054702759
-18.836845 8.4395561 0.0099658966
-18.812 8.3289433 0.0035018921
-18.792027 8.223629 0.0035400391
-18.771179 8.1160698 0.0031375885
-18.782148 8.0352325 0.05790329
-18.851637 7.998054 0.21265984
-19.009834 8.0245495 0.52142143
-18.810837 7.7861257 0.21196747
-18.806656 7.6934371 0.24357986
-18.772581 7.5791392 0.21964836
-18.752632 7.4747701 0.21936035
-18.731003 7.3687434 0.21721458
-18.710909 7.2656455 0.2175312
-18.692448 7.1623149 0.22035789
-18.667721 7.0564284 0.21226501
-18.650127 6.9553447 0.21552658
-18.6136 6.8409219 0.18799782
-18.613113 6.7518439 0.22113228
-18.593044 6.6496911 0.22112083
-18.573986 6.5485148 0.22094727
-18.553274 6.4466252 0.21858978
-18.529232 6.3423648 0.21219444
-18.521629 6.2494302 0.2336483
-18.525461 6.1637912 0.27705574
-18.499306 6.0597019 0.26487541
-18.330324 5.8683486 -0.0011100769
-18.310326 5.7690301 -0.0020961761
-18.29117 5.6710148 -0.0023174286
-18.271172 5.5716968 -0.0033035278
-18.246712 5.4702115 -0.01395607
-18.233713 5.3769665 -0.0029792786
-18.215387 5.2793074 -0.0021114349
-18.19791 5.1829491 -0.00047683716
-18.181927 5.0876284 0.0042705536
-18.162956 4.9902329 0.002790451
-18.135927 4.8908381 -0.01117897
-18.121597 4.7962308 -0.0042495728
-18.106461 4.7022128 0.0012664795
-18.085381 4.6060243 7.4386597e-005
-18.063309 4.5087676 -0.007352829
-18.047369 4.415338 -0.0032558441
-18.025784 4.3181429 -0.0074005127
-18.012344 4.2267275 -0.00035667419
-18.028112 4.148355 0.061887741
-18.199482 4.1450825 0.40797424
-18.093678 4.0080614 0.24872017
-18.073765 3.9125237 0.24642944
-18.036198 3.8090248 0.21061707
-18.011005 3.7109637 0.19756889
-17.95927 3.6025848 0.13741493
-17.865471 3.4756641 -0.0039844513
-17.847256 3.3827305 -0.004743576
-17.839767 3.2945218 0.015079498
-17.807224 3.1970334 -0.0090866089
-17.795946 3.1073365 0.0030918121
-17.780075 3.0167422 0.0062084198
-17.761194 2.9231272 0.0034275055
-17.740042 2.830008 -0.0042095184
-17.728785 2.7412562 0.007642746
-17.70203 2.6462626 -0.0088882446
-17.688316 2.5573883 -0.0006313324
-17.667162 2.4642692 -0.008272171
-17.652782 2.3747125 -0.0020389557
-17.632317 2.2832198 -0.0079784393
-17.618763 2.1940198 -0.00065422058
-17.601444 2.1042771 -0.0013008118
-17.585571 2.0136831 0.0018177032
-17.564304 1.9227793 -0.0055389404
-17.546642 1.8327422 -0.0039978027
-17.529345 1.7439461 -0.0049686432
-17.516617 1.6551018 0.003446579
-17.49847 1.5650036 0.0017089844
-17.475595 1.4752772 -0.0084819794
-17.462868 1.3864331 -6.8664551e-005
-17.442287 1.2971568 -0.0057277679
-17.424992 1.20836 -0.0067005157
-17.411461 1.1201048 0.00029754639
-17.391867 1.0308585 -0.0052051544
-17.3762 0.9418292 -0.0036697388
-17.356468 0.85385418 -0.0085659027
-17.340664 0.76609468 -0.0064258575
-17.324036 0.67797947 -0.0053749084
-17.304119 0.58938408 -0.0090122223
-17.290611 0.50207376 -0.0023403168
-17.271866 0.41412926 -0.0070762634
-17.25985 0.32785749 0.0027084351
-17.239433 0.23825502 -0.0038833618
-17.225302 0.15215492 0.00011253357
-17.204607 0.06509304 -0.0052680969
-17.189789 -0.022634506 -0.0029678345
-17.230198 -0.10179949 0.10778427
-17.270105 -0.18093491 0.22165871
-17.256115 -0.26830626 0.22504997
-17.257832 -0.35377407 0.26267242
-17.234333 -0.44229174 0.24980354
-17.269279 -0.52460146 0.35105515
-17.276554 -0.61008501 0.39822197
-17.162876 -0.70692968 0.21072197
-17.151848 -0.79317093 0.22066498
-17.1591 -0.87959957 0.26815796
-17.158262 -1.0520835 0.33247185
-17.113609 -1.226779 0.31062126
-17.100101 -1.3140879 0.31729317
-17.080553 -1.4014435 0.31114006
-17.057882 -1.4896049 0.29936218
-17.030663 -1.5767736 0.27787781
-17.04331 -1.6628928 0.33584595
-17.031273 -1.7501097 0.34595871
-17.008625 -1.837326 0.33385468
-14.976609 -1.9053001 -3.7357616
-14.834233 -1.9736629 -3.9960785
-14.763694 -2.0422492 -4.1109047
-14.703765 -2.1108375 -4.2035179
-14.63653 -2.1779976 -4.3139801
-14.563118 -2.2439346 -4.4366646
-14.519561 -2.3109741 -4.4991016
-14.456804 -2.3750219 -4.6002216
-14.327053 -2.4344912 -4.8400078
-14.228469 -2.4946456 -5.0151787
-14.147522 -2.5547247 -5.1551495
-14.070523 -2.6136413 -5.2884102
-14.020902 -2.6747308 -5.3646965
-14.010852 -2.7401161 -5.3586388
-14.00491 -2.8046656 -5.3468018
-13.995825 -2.8709655 -5.3402596
-13.977988 -2.933949 -5.3492565
-13.968121 -2.9987144 -5.3444557
-13.968956 -3.0666423 -5.3173981
-13.981045 -3.1348348 -5.2657776
-13.98645 -3.2028089 -5.2293339
-14.0055 -3.2737603 -5.1637497
-14.005714 -3.3404789 -5.1393661
-14.013992 -3.4111037 -5.0950661
-14.006216 -3.4769859 -5.0841522
-14.032845 -3.5519037 -5.0019321
-13.698742 -3.5464606 -5.6782913
-13.437653 -3.5534363 -6.2014866
-13.204925 -3.5625534 -6.6675501
-13.017098 -3.5784922 -7.039813
-12.963222 -3.6263027 -7.1300497
-12.893129 -3.669045 -7.2527409
-12.620455 -3.6553183 -7.8087559
-12.382576 -3.6474066 -8.2902288
-12.190699 -3.6485014 -8.6780243
-12.00034 -3.647613 -9.0630331
-11.805199 -3.6413021 -9.4571924
-11.640123 -3.6414702 -9.7913418
-21.040346 20.213665 0.043844223
-20.970795 19.994751 -0.0097885132
-20.941982 19.834572 -0.00071716309
-20.903551 19.660542 -0.011001587
-20.870356 19.494089 -0.011226654
-20.847691 19.344585 0.0016174316
-20.810822 19.174429 -0.0065326691
-20.782419 19.01738 -0.0006275177
-20.743412 18.846449 -0.014240265
-20.722973 18.7015 0.0027618408
-20.690094 18.541336 -0.00067520142
-20.65485 18.377892 -0.0076656342
-20.627548 18.225597 -0.0032329559
-20.593864 18.066023 -0.0080871582
-20.566446 17.915947 -0.003370285
-20.535334 17.761223 -0.0062561035
-20.501396 17.605133 -0.010223389
-20.474873 17.458248 -0.0053939819
-20.448532 17.311985 -0.00182724
-20.408537 17.147964 -0.016942978
-20.383757 17.005573 -0.011238098
-20.358307 16.862499 -0.0075550079
-20.249157 16.612322 -0.1300602
-20.214165 16.45927 -0.14063263
-20.189426 16.318769 -0.13558197
-20.17635 16.195015 -0.11182785
-20.192719 16.107548 -0.045238495
-20.190727 15.9967 -0.0047664642
-20.16287 15.855396 -0.0053329468
-20.137512 15.716103 -0.0029525757
-20.106647 15.571774 -0.0094242096
-20.086937 15.444225 0.0059261322
-20.055243 15.299541 -0.0016326904
-20.026764 15.159443 -0.0048751831
-20.007694 15.030594 0.0067481995
-19.970375 14.883091 -0.0093803406
-19.943481 14.74781 -0.010810852
-19.918903 14.613924 -0.0080394745
-19.8999 14.487911 0.0026073456
-19.876057 14.357542 0.0064258575
-19.841469 14.214563 -0.0086669922
-19.815994 14.084427 -0.007352829
-19.794811 13.955748 -0.0015182495
-19.766331 13.822592 -0.0061092377
-19.741173 13.691807 -0.0066604614
-19.708696 13.555597 -0.017313004
-19.691851 13.438242 -0.0028820038
-19.660202 13.302391 -0.012441635
-19.641497 13.181723 -0.0046825409
-19.615421 13.053741 -0.0063705444
-19.588682 12.925077 -0.010084152
-19.562792 12.797714 -0.013032913
-19.547804 12.68264 0.0019989014
-19.517094 12.55187 -0.0080986023
-19.491936 12.428026 -0.010000229
-19.470085 12.305607 -0.0075397491
-19.448807 12.187029 -0.0030994415
-19.426151 12.065199 -0.0020542145
-19.402533 11.944283 -0.001493454
-19.38862 11.833019 0.012393951
-19.385914 11.733482 0.0487957
-19.384239 11.635866 0.084705353
-19.397415 11.551699 0.14530373
-19.385708 11.444044 0.1636734
-19.384031 11.34643 0.19958305
-19.366125 11.232113 0.20740891
-19.356096 11.126116 0.22763634
-19.34354 11.01716 0.24523926
-19.312321 10.892326 0.23083878
-19.284956 10.771812 0.22310448
-19.256744 10.649998 0.21460342
-19.284979 10.580843 0.29830742
-19.211632 10.22987 0.28794289
-19.201992 10.127096 0.31140327
-19.169346 10.004057 0.29291153
-19.106331 9.8534431 0.22301674
-18.960514 9.6335297 0.013900757
-18.93177 9.5167046 0.0014209747
-18.906193 9.4025764 -0.0060863495
-18.887459 9.2948437 -0.00069999695
-18.865053 9.1834106 -0.003238678
-18.843357 9.0745487 -0.0044059753
-18.824806 8.9674377 -0.00028038025
-18.805426 8.8599701 0.0027580261
-18.78458 8.752409 0.0023574829
-18.763712 8.6439037 0.0022792816
-18.746857 8.5393963 0.0079364777
-18.718044 8.4266758 -0.0049114227
-18.700043 8.3224621 0.0015201569
-18.677725 8.2148094 -0.002325058
-18.663052 8.1129665 0.0081443787
-18.674023 8.0321293 0.062911987
-18.745184 7.9966083 0.21952438
-18.733498 7.8968406 0.23622131
-18.713522 7.7915273 0.23625755
-18.680092 7.6769643 0.214674
-18.680412 7.5872989 0.24922562
-18.628571 7.4603114 0.19339943
-18.620071 7.3641839 0.21473694
-18.60696 7.2662139 0.22734261
-18.583357 7.1590886 0.21880341
-18.563263 7.0559897 0.21912003
-18.53989 6.9524121 0.21474838
-18.522278 6.8503833 0.21833801
-18.538734 6.7736363 0.28227806
-18.50388 6.660872 0.25660133
-18.474232 6.464684 0.27165031
-18.467434 6.37116 0.29452133
-18.442081 6.2664828 0.28375435
-18.405781 6.1545696 0.25431442
-18.403 6.065043 0.28291893
-18.228876 5.8698936 0.005569458
-18.201916 5.7663937 -0.0080299377
-18.186071 5.6698031 -0.0038871765
-18.169216 5.572237 0.0004234314
-18.145287 5.472702 -0.0076007843
-18.135433 5.3812084 0.0086688995
-18.107004 5.2776155 -0.0083694458
-18.095015 5.1853476 0.0024394989
-18.068928 5.084094 -0.010721207
-18.058407 4.9919181 0.0035266876
-18.037807 4.8947544 -0.00045967102
-18.023979 4.8011541 0.0094261169
-17.99415 4.700304 -0.012029648
-17.978832 4.6056657 -0.0052604675
-17.957611 4.5097108 -0.011920929
-17.945621 4.4174428 -0.0011100769
-17.92952 4.3243375 0.0039157867
-17.909126 4.2287393 -0.0016536713
-17.926386 4.1514049 0.06370163
-17.884846 4.0457988 0.021501541
-17.854073 3.9468069 -0.0007648468
-17.832693 3.8511777 -0.0064945221
-17.818268 3.7597308 0.00038909912
-17.806461 3.6680827 0.0099430084
-17.788246 3.5751491 0.0091819763
-17.771526 3.483254 0.011537552
-17.748697 3.3884759 0.0020427704
-17.732964 3.2966113 0.0045547485
-17.709309 3.201478 -0.006029129
-17.688797 3.1080947 -0.011320114
-17.67754 3.0193448 0.00053405762
-17.660017 2.9280362 0.0014724731
-17.644304 2.8371177 0.003660202
-17.62694 2.7454848 0.0036640167
-17.607601 2.65379 0.0033512115
-17.591753 2.5641408 0.0061454773
-17.575214 2.4728656 0.0072422028
-17.554085 2.3806906 -0.00072097778
-17.540371 2.2918162 0.0075340271
-17.518436 2.2002306 -0.0018463135
-17.506535 2.1117432 0.0076560974
-17.481295 2.0187321 -0.0060863495
-17.467098 1.9297962 -0.0011100769
-17.455036 1.8416336 0.0093269348
-17.436409 1.7514744 0.0043106079
-17.415161 1.6615157 -0.0033740997
-17.397015 1.5714171 -0.0051116943
-17.378065 1.4819076 -0.008266449
-17.363869 1.3929715 -0.003288269
-17.347078 1.3051808 -0.0013065338
-17.328312 1.2162912 -0.0057182312
-17.311657 1.1272311 -0.0043430328
-17.297321 1.0395646 0.0012397766
-17.279358 0.95008707 -0.0017566681
-17.265873 0.86372185 0.0045928955
-17.243984 0.77402735 -0.0054416656
-17.231142 0.68739939 0.0032539368
-17.210745 0.59874105 -0.0036659241
-17.191978 0.50985241 -0.0080757141
-17.178492 0.42348719 -0.0017318726
-17.161217 0.33563566 -0.0030288696
-17.150166 0.24844933 0.0072402954
-17.127335 0.16061401 -0.0036010742
-17.109417 0.073025703 -0.0072460175
-17.096413 -0.013277531 0.0023803711
