# .PCD v0.7 - Point Cloud Data file format
VERSION 0.7
FIELDS x y z
SIZE 4 4 4
TYPE F F F
COUNT 1 1 1
WIDTH 1750
HEIGHT 1
VIEWPOINT 0 0 0 1 0 0 0
POINTS 1750
DATA ascii
-87.526001 32.229 0.089000002
-87.528 32.229 -0.106
-87.525002 32.229 -0.301
-87.526001 32.23 -0.49700001
-87.527 32.23 -0.69199997
-87.528 32.230999 -0.88700002
-87.530998 32.231998 -1.0829999
-87.570999 31.983999 28.885
-87.638 32.008999 28.693001
-87.634003 32.007999 28.478001
-87.634003 32.007999 28.264999
-87.636002 32.009998 28.052999
-87.636002 32.009998 27.84
-87.635002 32.009998 27.627001
-87.636002 32.011002 27.415001
-87.637001 32.011002 27.202999
-87.636002 32.011002 26.990999
-87.634003 32.011002 26.778999
-87.633003 32.011002 26.566999
-87.633003 32.012001 26.356001
-87.636002 32.013 26.146
-87.633003 32.012001 25.934
-87.632004 32.012001 25.724001
-87.630997 32.012001 25.513
-87.634003 32.014 25.304001
-87.632004 32.013 25.094
-87.630005 32.013 24.884001
-87.630997 32.014 24.674999
-87.630997 32.014 24.466
-87.630997 32.014999 24.257999
-87.628998 32.014 24.049
-87.627998 32.014 23.84
-87.630005 32.014999 23.632999
-87.627998 32.014999 23.424
-87.625999 32.014999 23.216
-87.625999 32.014999 23.009001
-87.626999 32.015999 22.802
-87.625999 32.015999 22.594999
-87.625999 32.015999 22.388
-87.625999 32.016998 22.181999
-87.625999 32.016998 21.975
-87.626999 32.018002 21.768999
-87.626999 32.018002 21.563999
-87.624001 32.018002 21.357
-87.624001 32.018002 21.152
-87.623001 32.018002 20.945999
-87.623001 32.018002 20.740999
-87.621002 32.018002 20.535999
-87.619003 32.016998 20.33
-87.623001 32.02 20.127001
-87.621002 32.019001 19.922001
-87.623001 32.02 19.718
-87.623001 32.02 19.514
-87.623001 32.021 19.309999
-87.622002 32.021 19.107
-87.621002 32.021 18.903
-87.621002 32.021 18.700001
-87.621002 32.021999 18.497
-87.621002 32.021999 18.294001
-87.622002 32.022999 18.091
-87.623001 32.022999 17.889
-87.621002 32.022999 17.686001
-87.622002 32.023998 17.483999
-87.622002 32.023998 17.281
-87.623001 32.025002 17.08
-87.622002 32.025002 16.878
-87.622002 32.025002 16.676001
-87.620003 32.025002 16.474001
-87.623001 32.026001 16.273001
-87.622002 32.027 16.072001
-87.620003 32.026001 15.87
-87.621002 32.027 15.67
-87.619003 32.026001 15.468
-87.620003 32.027 15.268
-87.619003 32.027 15.067
-87.619003 32.028 14.867
-87.617996 32.028 14.666
-87.619003 32.028 14.466
-87.619003 32.028999 14.266
-87.619003 32.028999 14.066
-87.619003 32.029999 13.867
-87.616997 32.028999 13.667
-87.619003 32.029999 13.468
-87.619003 32.030998 13.268
-87.620003 32.030998 13.069
-87.619003 32.030998 12.87
-87.617996 32.030998 12.671
-87.617996 32.032001 12.472
-87.619003 32.033001 12.273
-87.617996 32.032001 12.074
-87.619003 32.033001 11.876
-87.617996 32.033001 11.677
-87.615997 32.033001 11.479
-87.615997 32.033001 11.28
-87.619003 32.034 11.082
-87.617996 32.034 10.884
-87.617996 32.035 10.686
-87.616997 32.035 10.488
-87.616997 32.035 10.291
-87.615997 32.035 10.093
-87.616997 32.035999 9.8950005
-87.615997 32.035999 9.698
-87.614998 32.035999 9.5
-87.614998 32.035999 9.3030005
-87.614998 32.036999 9.1049995
-87.615997 32.036999 8.908
-87.614998 32.037998 8.7110004
-87.614998 32.037998 8.5139999
-87.614998 32.037998 8.3170004
-87.613998 32.037998 8.1199999
-87.613998 32.039001 7.9229999
-87.613998 32.039001 7.7270002
-87.613998 32.039001 7.5300002
-87.612 32.039001 7.3330002
-87.615997 32.041 7.1370001
-87.612999 32.040001 6.9400001
-87.615997 32.041 6.744
-87.612999 32.041 6.5469999
-87.613998 32.041 6.3509998
-87.613998 32.042 6.1550002
-87.613998 32.042 5.9590001
-87.612999 32.042 5.7620001
-87.612999 32.042 5.566
-87.612 32.042999 5.3699999
-87.611 32.042999 5.1739998
-87.611 32.042999 4.9780002
-87.612 32.043999 4.7820001
-87.611 32.043999 4.586
-87.611 32.043999 4.3909998
-87.612 32.044998 4.1950002
-87.612 32.044998 3.9990001
-87.612 32.044998 3.803
-87.612999 32.046001 3.608
-87.614998 32.047001 3.4119999
-87.609993 32.046001 3.2160001
-87.612 32.047001 3.0209999
-87.611 32.047001 2.825
-87.612 32.047001 2.6300001
-87.611 32.048 2.434
-87.609001 32.047001 2.2390001
-87.608002 32.047001 2.043
-87.609001 32.048 1.848
-87.609001 32.048 1.652
-87.608002 32.048 1.457
-87.608002 32.049 1.261
-87.609001 32.049 1.066
-87.608002 32.049 0.87099999
-87.607002 32.049 0.67500001
-87.607002 32.049999 0.47999999
-87.606003 32.049999 0.28400001
-87.605003 32.049999 0.089000002
-87.607002 32.050999 -0.106
-87.606003 32.050999 -0.30199999
-87.608002 32.051998 -0.49700001
-87.608002 32.051998 -0.69300002
-87.609001 32.053001 -0.88800001
-87.612 32.054001 -1.0829999
-87.653 31.802999 28.889999
-87.719002 31.827 28.697001
-87.720001 31.827999 28.483999
-87.717003 31.827 28.27
-87.718002 31.827999 28.056
-87.717003 31.827999 27.843
-87.716003 31.827999 27.629999
-87.716003 31.829 27.417999
-87.718002 31.83 27.207001
-87.716003 31.83 26.993999
-87.717003 31.83 26.783001
-87.717003 31.830999 26.570999
-87.717003 31.830999 26.360001
-87.714996 31.830999 26.149
-87.714996 31.830999 25.938
-87.714996 31.832001 25.728001
-87.713997 31.832001 25.517
-87.713997 31.832001 25.308001
-87.712997 31.832001 25.098
-87.711998 31.832001 24.888
-87.714996 31.834 24.679001
-87.712997 31.833 24.469999
-87.712997 31.834 24.261
-87.712997 31.834 24.052999
-87.710999 31.834 23.844
-87.711998 31.834999 23.636
-87.710999 31.834999 23.427999
-87.710999 31.834999 23.221001
-87.710007 31.834999 23.013
-87.710999 31.836 22.806
-87.710007 31.836 22.599001
-87.710007 31.836 22.392
-87.710007 31.837 22.186001
-87.709 31.837 21.979
-87.708 31.837 21.771999
-87.708 31.837999 21.566999
-87.707001 31.837 21.360001
-87.706001 31.837 21.155001
-87.705002 31.837999 20.948999
-87.705002 31.837999 20.743999
-87.704002 31.837999 20.539
-87.706001 31.839001 20.334
-87.706001 31.839001 20.129999
-87.706001 31.84 19.926001
-87.705002 31.84 19.721001
-87.706001 31.841 19.517
-87.704002 31.84 19.313
-87.705002 31.841 19.110001
-87.705002 31.841 18.906
-87.704002 31.841 18.702999
-87.704002 31.841999 18.499001
-87.704002 31.841999 18.296
-87.703003 31.841999 18.093
-87.704002 31.843 17.891001
-87.703003 31.843 17.688
-87.706001 31.844999 17.487
-87.703003 31.844 17.284
-87.705002 31.844999 17.082001
-87.704002 31.844999 16.879999
-87.704002 31.844999 16.677999
-87.703003 31.844999 16.476999
-87.702003 31.846001 16.275
-87.704002 31.847 16.073999
-87.702003 31.846001 15.872
-87.704002 31.847 15.672
-87.702003 31.847 15.471
-87.702003 31.848 15.27
-87.700996 31.848 15.069
-87.702003 31.848 14.869
-87.700996 31.848 14.669
-87.699997 31.848 14.468
-87.700996 31.849001 14.268
-87.698997 31.849001 14.068
-87.700996 31.85 13.869
-87.700996 31.85 13.669
-87.699997 31.85 13.469
-87.698997 31.851 13.27
-87.699997 31.851 13.071
-87.698997 31.851 12.871
-87.697998 31.851 12.672
-87.699997 31.851999 12.473
-87.699997 31.853001 12.275
-87.698997 31.853001 12.076
-87.698997 31.853001 11.877
-87.698997 31.854 11.679
-87.698997 31.854 11.48
-87.698997 31.854 11.282
-87.697998 31.854 11.084
-87.697998 31.855 10.886
-87.699997 31.856001 10.688
-87.696999 31.855 10.489
-87.696999 31.855 10.292
-87.696999 31.856001 10.094
-87.696999 31.856001 9.8959999
-87.695999 31.857 9.6990004
-87.696999 31.857 9.5010004
-87.696999 31.858 9.3039999
-87.695999 31.858 9.1059999
-87.695999 31.858 8.9090004
-87.697998 31.858999 8.7119999
-87.695999 31.858999 8.5150003
-87.696999 31.858999 8.3179998
-87.695999 31.860001 8.1210003
-87.695 31.860001 7.9239998
-87.695 31.860001 7.7270002
-87.695 31.860001 7.5310001
-87.694 31.860001 7.3340001
-87.696999 31.862 7.138
-87.695 31.861 6.941
-87.695 31.862 6.744
-87.694 31.862 6.5479999
-87.694 31.862 6.3520002
-87.693001 31.862 6.1550002
-87.695 31.863001 5.9590001
-87.694 31.863001 5.763
-87.694 31.864 5.5669999
-87.693001 31.864 5.3709998
-87.694 31.864 5.1750002
-87.693001 31.864 4.9790001
-87.694 31.865 4.783
-87.693001 31.865 4.5869999
-87.692001 31.865 4.3909998
-87.694 31.867001 4.1950002
-87.694 31.867001 3.9990001
-87.693001 31.867001 3.8039999
-87.693001 31.867001 3.608
-87.693001 31.868 3.4119999
-87.693001 31.868 3.217
-87.693001 31.868 3.0209999
-87.689995 31.868 2.825
-87.691002 31.868 2.6300001
-87.689995 31.868 2.434
-87.692001 31.868999 2.2390001
-87.689995 31.868999 2.043
-87.689003 31.868999 1.848
-87.689995 31.870001 1.652
-87.689003 31.870001 1.457
-87.688004 31.870001 1.261
-87.688004 31.870001 1.066
-87.688004 31.871 0.87
-87.686996 31.871 0.67500001
-87.686996 31.871 0.479
-87.686996 31.872 0.28400001
-87.684998 31.871 0.089000002
-87.685997 31.872 -0.107
-87.686996 31.872999 -0.30199999
-87.688004 31.874001 -0.498
-87.688004 31.874001 -0.69300002
-87.689995 31.875 -0.88800001
-87.691002 31.875999 -1.084
-87.727997 31.618999 28.892
-87.800003 31.645 28.701
-87.799004 31.646 28.487
-87.796997 31.645 28.273001
-87.799004 31.646 28.059999
-87.799004 31.646999 27.847
-87.796997 31.646999 27.634001
-87.795998 31.646999 27.422001
-87.799004 31.648001 27.209999
-87.797997 31.648001 26.997999
-87.797997 31.649 26.785999
-87.796997 31.649 26.575001
-87.796997 31.649 26.363001
-87.795998 31.649 26.152
-87.793999 31.649 25.941
-87.794998 31.65 25.731001
-87.793999 31.65 25.521
-87.795998 31.650999 25.311001
-87.792 31.65 25.101
-87.792999 31.650999 24.891001
-87.793999 31.652 24.681999
-87.793999 31.652 24.473
-87.793999 31.652 24.264999
-87.792 31.652 24.056
-87.792 31.653 23.847
-87.792999 31.653 23.639
-87.792 31.653999 23.431
-87.791 31.653999 23.223
-87.790001 31.653999 23.016001
-87.791 31.653999 22.809
-87.790001 31.655001 22.601999
-87.792 31.656 22.395
-87.791 31.656 22.188
-87.791 31.656 21.982
-87.789001 31.656 21.775
-87.791 31.657 21.57
-87.789001 31.657 21.364
-87.787003 31.657 21.158001
-87.788002 31.657 20.952999
-87.788002 31.657999 20.747
-87.789001 31.659 20.542999
-87.789001 31.659 20.337999
-87.787003 31.659 20.132999
-87.789001 31.66 19.929001
-87.787003 31.66 19.724001
-87.788002 31.66 19.52
-87.788002 31.660999 19.316
-87.788002 31.660999 19.113001
-87.788002 31.660999 18.909
-87.787003 31.662001 18.705
-87.786003 31.662001 18.502001
-87.786003 31.662001 18.299
-87.786003 31.663 18.096001
-87.786003 31.663 17.893999
-87.783997 31.663 17.691
-87.786003 31.664 17.489
-87.785004 31.664 17.285999
-87.783997 31.664 17.084
-87.783997 31.664 16.882
-87.785004 31.665001 16.68
-87.783997 31.665001 16.479
-87.782997 31.665001 16.277
-87.783997 31.666 16.076
-87.782997 31.666 15.875
-87.781998 31.666 15.674
-87.782997 31.667 15.473
-87.780998 31.667 15.272
-87.780998 31.667 15.071
-87.779999 31.667 14.871
-87.780998 31.667999 14.67
-87.778999 31.667999 14.47
-87.780998 31.669001 14.27
-87.779999 31.669001 14.07
-87.781998 31.67 13.87
-87.779999 31.67 13.671
-87.779999 31.67 13.471
-87.779999 31.671 13.272
-87.778999 31.671 13.072
-87.778999 31.671 12.873
-87.780998 31.672001 12.674
-87.779999 31.672001 12.475
-87.779999 31.673 12.276
-87.779999 31.673 12.077
-87.779999 31.673 11.879
-87.779999 31.674 11.68
-87.779999 31.674 11.482
-87.778999 31.674 11.283
-87.778999 31.674999 11.085
-87.779999 31.674999 10.887
-87.778999 31.674999 10.689
-87.777 31.674999 10.491
-87.778 31.676001 10.293
-87.777 31.676001 10.095
-87.776001 31.676001 9.8970003
-87.776001 31.677 9.6999998
-87.776001 31.677 9.5019999
-87.777 31.677999 9.3050003
-87.776001 31.677999 9.1070004
-87.777 31.679001 8.9099998
-87.777 31.679001 8.7130003
-87.777 31.679001 8.5159998
-87.776001 31.679001 8.3190002
-87.776001 31.68 8.1219997
-87.775002 31.68 7.9250002
-87.775002 31.68 7.7280002
-87.774002 31.68 7.5310001
-87.775002 31.681 7.335
-87.776001 31.681999 7.138
-87.774002 31.681999 6.9419999
-87.776001 31.683001 6.7449999
-87.775002 31.683001 6.5489998
-87.774002 31.683001 6.3520002
-87.774002 31.683001 6.1560001
-87.774002 31.684 5.96
-87.774002 31.684 5.763
-87.774002 31.684999 5.5669999
-87.774002 31.684999 5.3709998
-87.774002 31.684999 5.1750002
-87.772003 31.684999 4.9790001
-87.774002 31.686001 4.783
-87.774002 31.687 4.5869999
-87.774002 31.687 4.3909998
-87.773003 31.687 4.1950002
-87.774002 31.688 4
-87.773003 31.688 3.8039999
-87.772003 31.688 3.608
-87.773003 31.688999 3.4119999
-87.772003 31.688999 3.217
-87.775002 31.690001 3.0209999
-87.772003 31.688999 2.825
-87.769997 31.688999 2.6300001
-87.772003 31.690001 2.434
-87.769997 31.690001 2.2390001
-87.771004 31.691 2.043
-87.769997 31.691 1.848
-87.769997 31.691 1.652
-87.768997 31.691 1.457
-87.767998 31.691 1.261
-87.768997 31.691999 1.066
-87.767998 31.691999 0.87
-87.769997 31.693001 0.67500001
-87.767998 31.693001 0.479
-87.767998 31.693001 0.28400001
-87.766998 31.693001 0.088
-87.767998 31.694 -0.107
-87.766998 31.694 -0.303
-87.769997 31.695999 -0.498
-87.771004 31.695999 -0.69300002
-87.768997 31.695999 -0.889
-87.771004 31.697001 -1.084
-87.795998 31.433001 28.891001
-87.883003 31.464001 28.705999
-87.880997 31.464001 28.492001
-87.883003 31.465 28.278999
-87.882004 31.465 28.065001
-87.882004 31.466 27.851999
-87.882004 31.466 27.639
-87.880997 31.466 27.427
-87.882004 31.466999 27.215
-87.880997 31.466999 27.003
-87.879997 31.468 26.791
-87.879997 31.468 26.579
-87.877998 31.468 26.367001
-87.878998 31.469 26.157
-87.877998 31.469 25.945999
-87.878998 31.469 25.735001
-87.877998 31.469999 25.525
-87.876999 31.469999 25.315001
-87.874001 31.469 25.104
-87.875999 31.469999 24.895
-87.875999 31.471001 24.686001
-87.875999 31.471001 24.476999
-87.875999 31.472 24.268
-87.875 31.472 24.059999
-87.874001 31.472 23.851
-87.874001 31.472 23.643
-87.874001 31.473 23.434999
-87.873001 31.473 23.226999
-87.872002 31.473 23.018999
-87.872002 31.474001 22.812
-87.873001 31.474001 22.605
-87.874001 31.475 22.399
-87.873001 31.475 22.191999
-87.873001 31.476 21.985001
-87.873001 31.476 21.778999
-87.874001 31.476999 21.573
-87.872002 31.476999 21.367001
-87.871002 31.476999 21.160999
-87.870003 31.476999 20.955999
-87.867996 31.476 20.75
-87.869003 31.476999 20.545
-87.866997 31.476999 20.34
-87.867996 31.478001 20.136
-87.867996 31.479 19.931
-87.867996 31.479 19.726999
-87.866997 31.479 19.521999
-87.867996 31.48 19.319
-87.867996 31.48 19.115
-87.866997 31.48 18.910999
-87.865997 31.481001 18.708
-87.867996 31.482 18.504999
-87.867996 31.482 18.302
-87.866997 31.482 18.099001
-87.867996 31.483 17.896
-87.865997 31.483 17.693001
-87.867996 31.483999 17.490999
-87.865997 31.483999 17.289
-87.864998 31.483999 17.086
-87.865997 31.483999 16.885
-87.862999 31.483999 16.681999
-87.862999 31.483999 16.481001
-87.862999 31.485001 16.278999
-87.863998 31.486 16.077999
-87.862 31.485001 15.877
-87.863998 31.486 15.676
-87.862999 31.487 15.475
-87.862999 31.487 15.274
-87.862 31.487 15.073
-87.862 31.487 14.873
-87.862 31.488001 14.672
-87.860001 31.488001 14.472
-87.862999 31.489 14.272
-87.861 31.489 14.072
-87.862999 31.49 13.872
-87.861 31.49 13.672
-87.862 31.49 13.473
-87.862999 31.490999 13.274
-87.861 31.490999 13.074
-87.862 31.492001 12.875
-87.860001 31.492001 12.675
-87.860001 31.492001 12.477
-87.859001 31.492001 12.278
-87.860001 31.493 12.079
-87.860001 31.493 11.88
-87.861 31.493999 11.682
-87.860001 31.493999 11.483
-87.861 31.495001 11.285
-87.860001 31.495001 11.086
-87.859001 31.495001 10.888
-87.860001 31.496 10.69
-87.858002 31.496 10.492
-87.859001 31.497 10.294
-87.857002 31.496 10.096
-87.857002 31.497 9.8990002
-87.859001 31.497999 9.7010002
-87.858002 31.497999 9.5030003
-87.857002 31.497999 9.3059998
-87.858002 31.499001 9.1090002
-87.857002 31.499001 8.9110003
-87.857002 31.499001 8.7139997
-87.858002 31.5 8.5170002
-87.857002 31.5 8.3199997
-87.857002 31.500999 8.1230001
-87.856003 31.500999 7.9260001
-87.855003 31.500999 7.7290001
-87.857002 31.502001 7.5320001
-87.853996 31.500999 7.335
-87.858002 31.503 7.1389999
-87.855003 31.502001 6.9419999
-87.855003 31.503 6.7459998
-87.858002 31.504 6.5500002
-87.855003 31.504 6.3530002
-87.853996 31.504 6.1570001
-87.852997 31.504 5.96
-87.853996 31.504999 5.7639999
-87.853996 31.504999 5.5679998
-87.855003 31.506001 5.3720002
-87.852997 31.506001 5.1760001
-87.853996 31.506001 4.98
-87.853996 31.507 4.7839999
-87.853996 31.507 4.5879998
-87.853996 31.507999 4.3920002
-87.853996 31.507999 4.1960001
-87.853996 31.509001 4
-87.853996 31.509001 3.8039999
-87.853996 31.509001 3.608
-87.853996 31.51 3.4130001
-87.855003 31.511 3.217
-87.853996 31.511 3.0209999
-87.850998 31.51 2.825
-87.849998 31.51 2.6300001
-87.851997 31.511 2.434
-87.850998 31.511 2.2390001
-87.849998 31.511999 2.043
-87.850998 31.511999 1.847
-87.849998 31.513 1.652
-87.850998 31.513 1.456
-87.849998 31.513 1.261
-87.848999 31.513 1.0650001
-87.848999 31.514 0.87
-87.848999 31.514 0.67400002
-87.848999 31.514999 0.479
-87.847 31.514 0.28299999
-87.848 31.514999 0.088
-87.847 31.514999 -0.108
-87.846001 31.514999 -0.303
-87.883003 31.253 28.898001
-87.959999 31.281 28.709
-87.959 31.281 28.495001
-87.959999 31.282 28.282
-87.960999 31.282999 28.069
-87.959 31.282999 27.855
-87.958 31.282999 27.642
-87.958 31.282999 27.43
-87.959 31.284 27.216999
-87.959 31.284 27.004999
-87.960999 31.285999 26.794001
-87.959 31.285999 26.582001
-87.959 31.285999 26.371
-87.958 31.285999 26.16
-87.958 31.287001 25.948999
-87.956001 31.287001 25.738001
-87.958 31.288 25.528
-87.958 31.288 25.318001
-87.954002 31.287001 25.108
-87.954002 31.288 24.898001
-87.955002 31.289 24.688999
-87.956001 31.289 24.48
-87.955002 31.289 24.271
-87.954002 31.290001 24.062
-87.954002 31.290001 23.854
-87.955002 31.291 23.646
-87.952003 31.291 23.438
-87.953003 31.291 23.23
-87.950996 31.291 23.021999
-87.952003 31.292 22.815001
-87.950996 31.292 22.608
-87.950005 31.292 22.400999
-87.950996 31.292999 22.194
-87.950996 31.294001 21.988001
-87.950005 31.294001 21.781
-87.950996 31.295 21.576
-87.950005 31.294001 21.368999
-87.945999 31.294001 21.163
-87.948997 31.295 20.958
-87.947998 31.295 20.753
-87.947998 31.296 20.548
-87.947998 31.296 20.343
-87.948997 31.297001 20.138
-87.947998 31.297001 19.934
-87.946999 31.297001 19.729
-87.946999 31.298 19.525
-87.945999 31.298 19.320999
-87.946999 31.299 19.117001
-87.946999 31.299 18.914
-87.946999 31.299999 18.709999
-87.947998 31.301001 18.507
-87.947998 31.301001 18.304001
-87.947998 31.302 18.101
-87.947998 31.302 17.899
-87.945999 31.302 17.695999
-87.946999 31.302999 17.493
-87.945999 31.302999 17.291
-87.945999 31.302999 17.089001
-87.945999 31.304001 16.886999
-87.945 31.304001 16.684999
-87.945 31.304001 16.483
-87.944 31.304001 16.282
-87.945 31.305 16.08
-87.943001 31.305 15.879
-87.944 31.306 15.678
-87.944 31.306 15.477
-87.943001 31.306 15.276
-87.941002 31.306 15.075
-87.942001 31.306999 14.875
-87.943001 31.308001 14.674
-87.941002 31.306999 14.474
-87.942001 31.308001 14.274
-87.941002 31.308001 14.074
-87.943001 31.309999 13.874
-87.942001 31.309999 13.674
-87.942001 31.309999 13.475
-87.943001 31.311001 13.275
-87.942001 31.311001 13.076
-87.942001 31.312 12.877
-87.941002 31.312 12.677
-87.941002 31.312 12.478
-87.941002 31.313 12.279
-87.940002 31.313 12.08
-87.940002 31.313 11.882
-87.941002 31.313999 11.683
-87.941002 31.315001 11.485
-87.941002 31.315001 11.286
-87.941002 31.315001 11.088
-87.942001 31.316 10.89
-87.941002 31.316 10.692
-87.938004 31.316 10.493
-87.936996 31.316 10.295
-87.938004 31.316999 10.097
-87.938004 31.316999 9.8999996
-87.938004 31.318001 9.7019997
-87.936996 31.318001 9.5039997
-87.936996 31.318001 9.3070002
-87.936996 31.319 9.1099997
-87.936996 31.319 8.9119997
-87.935997 31.319 8.7150002
-87.935997 31.32 8.5179996
-87.934998 31.32 8.3210001
-87.935997 31.320999 8.1239996
-87.935997 31.320999 7.927
-87.933998 31.320999 7.73
-87.934998 31.322001 7.533
-87.935997 31.322001 7.336
-87.935997 31.323 7.1399999
-87.934998 31.323 6.9429998
-87.934998 31.323 6.7459998
-87.934998 31.323999 6.5500002
-87.934998 31.323999 6.3540001
-87.932999 31.323999 6.1570001
-87.932999 31.325001 5.961
-87.932999 31.325001 5.7639999
-87.932999 31.325001 5.5679998
-87.932999 31.326 5.3720002
-87.931999 31.326 5.1760001
-87.933998 31.327 4.98
-87.934998 31.327999 4.7839999
-87.931999 31.327999 4.5879998
-87.933998 31.327999 4.3920002
-87.933998 31.329 4.1960001
-87.934998 31.33 4
-87.932999 31.33 3.8039999
-87.931999 31.33 3.608
-87.933998 31.330999 3.4130001
-87.931999 31.33 3.217
-87.932999 31.330999 3.0209999
-87.931999 31.332001 2.825
-87.932999 31.332001 2.6300001
-87.931 31.332001 2.434
-87.931999 31.333 2.2390001
-87.931 31.333 2.043
-87.929993 31.333 1.847
-87.929001 31.333 1.652
-87.929993 31.334 1.456
-87.929993 31.334999 1.261
-87.929993 31.334999 1.0650001
-87.928001 31.334999 0.87
-87.929993 31.336 0.67400002
-87.929001 31.336 0.479
-87.928001 31.336 0.28299999
-87.927002 31.336 0.088
-87.929993 31.337999 -0.108
-87.927002 31.337 -0.303
-84.662003 30.174 -0.66900003
-87.971001 31.073999 28.905001
-88.039001 31.098 28.712999
-88.042 31.1 28.5
-88.039001 31.099001 28.285
-88.040001 31.1 28.072001
-88.041 31.101 27.860001
-88.038002 31.101 27.646
-88.039001 31.101 27.434
-88.040001 31.101999 27.221001
-88.040001 31.103001 27.01
-88.039001 31.103001 26.798
-88.039001 31.103001 26.586
-88.038002 31.104 26.374001
-88.037003 31.104 26.163
-88.037003 31.104 25.952999
-88.036003 31.105 25.742001
-88.036003 31.105 25.531
-88.038002 31.106001 25.322001
-88.035004 31.106001 25.111
-88.033997 31.106001 24.902
-88.036003 31.107 24.693001
-88.033997 31.107 24.483
-88.035004 31.108 24.275
-88.035004 31.108 24.066
-88.032997 31.108 23.857
-88.031998 31.108 23.649
-88.031998 31.108999 23.441
-88.031998 31.108999 23.233
-88.033997 31.111 23.025999
-88.032997 31.111 22.818001
-88.032997 31.111 22.611
-88.031998 31.111 22.403999
-88.030998 31.111 22.197001
-88.030998 31.112 21.990999
-88.030998 31.112 21.785
-88.030006 31.113001 21.577999
-88.030006 31.113001 21.372999
-88.032997 31.115 21.167999
-88.030006 31.114 20.961
-88.030998 31.115 20.756001
-88.030998 31.115 20.551001
-88.028999 31.115 20.346001
-88.028999 31.115999 20.141001
-88.028 31.115999 19.936001
-88.030006 31.117001 19.733
-88.028999 31.117001 19.528
-88.028999 31.118 19.323999
-88.030006 31.118999 19.121
-88.028999 31.118999 18.917
-88.028999 31.118999 18.712999
-88.028999 31.120001 18.51
-88.028 31.120001 18.306999
-88.027 31.120001 18.104
-88.028 31.121 17.900999
-88.026001 31.121 17.698
-88.027 31.122 17.496
-88.026001 31.122 17.292999
-88.026001 31.122 17.091
-88.027 31.122999 16.889
-88.024002 31.122999 16.687
-88.024002 31.122999 16.485001
-88.024002 31.124001 16.284
-88.023003 31.124001 16.082001
-88.023003 31.124001 15.881
-88.024002 31.125 15.68
-88.023003 31.125 15.479
-88.022003 31.125 15.278
-88.023003 31.125999 15.077
-88.022003 31.125999 14.877
-88.022003 31.127001 14.676
-88.021004 31.127001 14.476
-88.023003 31.128 14.276
-88.019997 31.128 14.075
-88.022003 31.129 13.876
-88.023003 31.129999 13.676
-88.023003 31.129999 13.477
-88.025002 31.131001 13.277
-88.021004 31.129999 13.077
-88.021004 31.131001 12.878
-88.021004 31.131001 12.679
-88.022003 31.132 12.48
-88.021004 31.132 12.281
-88.021004 31.132999 12.082
-88.023003 31.134001 11.883
-88.022003 31.134001 11.685
-88.022003 31.135 11.486
-88.022003 31.135 11.288
-88.022003 31.136 11.089
-88.021004 31.136 10.891
-88.021004 31.136 10.693
-88.017998 31.136 10.495
-88.018997 31.136999 10.297
-88.016998 31.136 10.099
-88.016998 31.136999 9.901
-88.017998 31.138 9.7030001
-88.018997 31.138 9.5059996
-88.016998 31.138 9.3079996
-88.018997 31.139 9.1110001
-88.017998 31.139 8.9130001
-88.016998 31.139999 8.7159996
-88.016998 31.139999 8.5190001
-88.016998 31.141001 8.3219995
-88.017998 31.141001 8.125
-88.015999 31.141001 7.928
-88.017998 31.142 7.7309999
-88.015999 31.142 7.5339999
-88.016998 31.143 7.3369999
-88.016998 31.143999 7.1399999
-88.016998 31.143999 6.9439998
-88.015999 31.143999 6.7470002
-88.014999 31.143999 6.5510001
-88.015999 31.145 6.3540001
-88.015999 31.146 6.158
-88.014999 31.146 5.961
-88.015999 31.146 5.7649999
-88.014999 31.146999 5.5689998
-88.014999 31.146999 5.3730001
-88.015999 31.148001 5.1760001
-88.014 31.148001 4.98
-88.014 31.148001 4.7839999
-88.014 31.149 4.5879998
-88.014 31.149 4.3920002
-88.015999 31.15 4.1960001
-88.014 31.15 4
-88.014999 31.150999 3.8039999
-88.014 31.150999 3.609
-88.015999 31.152 3.4130001
-88.014 31.152 3.217
-88.014 31.152 3.0209999
-88.012001 31.152 2.825
-88.012001 31.153 2.6300001
-88.013 31.153999 2.434
-88.012001 31.153999 2.2379999
-88.011002 31.153999 2.043
-88.012001 31.155001 1.847
-88.011002 31.155001 1.652
-88.009995 31.155001 1.456
-88.011002 31.156 1.26
-88.011002 31.156 1.0650001
-88.009995 31.156 0.86900002
-88.009003 31.157 0.67400002
-88.008003 31.157 0.47799999
-88.008003 31.157 0.28299999
-88.007004 31.157999 0.086999997
-88.008003 31.157999 -0.108
-88.007004 31.157999 -0.30399999
-84.75 30.006001 -0.66900003
-84.551003 29.936001 -1.043
-88.125999 30.917999 28.719
-88.125 30.919001 28.504999
-88.126999 30.92 28.292
-88.125 30.92 28.077999
-88.125999 30.92 27.865
-88.123001 30.92 27.650999
-88.124001 30.921 27.438999
-88.125 30.922001 27.226999
-88.123001 30.922001 27.014
-88.123001 30.922001 26.802999
-88.122002 30.922001 26.591
-88.121002 30.923 26.379
-88.123001 30.924 26.169001
-88.121002 30.924 25.957001
-88.121002 30.924 25.747
-88.120003 30.924 25.535999
-88.123001 30.926001 25.327
-88.119003 30.924999 25.115999
-88.117996 30.924999 24.906
-88.120003 30.927 24.697001
-88.117996 30.927 24.488001
-88.116997 30.927 24.278999
-88.115997 30.927 24.07
-88.117996 30.927999 23.862
-88.117996 30.929001 23.653999
-88.116997 30.929001 23.445
-88.115997 30.929001 23.237
-88.116997 30.93 23.030001
-88.116997 30.93 22.823
-88.116997 30.931 22.615
-88.115997 30.931 22.408001
-88.114998 30.931 22.201
-88.112999 30.931 21.995001
-88.114998 30.931999 21.789
-88.115997 30.933001 21.583
-88.112999 30.933001 21.375999
-88.112 30.933001 21.17
-88.112 30.933001 20.965
-88.112 30.934 20.759001
-88.111 30.934 20.554001
-88.109001 30.934 20.349001
-88.109001 30.934999 20.143999
-88.111 30.936001 19.940001
-88.110001 30.936001 19.735001
-88.111 30.937 19.531
-88.113998 30.938 19.327999
-88.113998 30.938999 19.124001
-88.112 30.938999 18.92
-88.111 30.938999 18.716
-88.112 30.940001 18.513
-88.112 30.940001 18.309999
-88.110001 30.940001 18.107
-88.110001 30.940001 17.903999
-88.108002 30.941 17.701
-88.110001 30.941999 17.499001
-88.110001 30.941999 17.296
-88.109001 30.941999 17.094
-88.109001 30.943001 16.892
-88.108002 30.943001 16.690001
-88.107002 30.943001 16.488001
-88.107002 30.944 16.285999
-88.106003 30.944 16.084999
-88.108002 30.945 15.884
-88.106003 30.945 15.682
-88.107002 30.945999 15.482
-88.107002 30.945999 15.281
-88.106003 30.947001 15.08
-88.106003 30.947001 14.879
-88.106003 30.948 14.679
-88.103996 30.947001 14.478
-88.105003 30.948 14.278
-88.105003 30.948999 14.078
-88.106003 30.948999 13.878
-88.105003 30.950001 13.678
-88.105003 30.950001 13.479
-88.106003 30.951 13.279
-88.106003 30.952 13.08
-88.103996 30.952 12.88
-88.103996 30.952 12.681
-88.103996 30.952 12.482
-88.102997 30.952999 12.283
-88.103996 30.954 12.084
-88.102997 30.954 11.885
-88.100998 30.954 11.686
-88.101997 30.955 11.488
-88.101997 30.955 11.289
-88.103996 30.955999 11.091
-88.102997 30.955999 10.893
-88.101997 30.957001 10.694
-88.100998 30.957001 10.496
-88.101997 30.958 10.298
-88.100998 30.957001 10.1
-88.100998 30.958 9.9020004
-88.097 30.957001 9.7040005
-88.098999 30.958 9.507
-88.099998 30.959 9.309
-88.099998 30.959999 9.1120005
-88.098 30.959999 8.9139996
-88.098999 30.961 8.717
-88.098999 30.961 8.5200005
-88.099998 30.962 8.323
-88.098 30.962 8.1260004
-88.098999 30.962 7.9289999
-88.097 30.962 7.7319999
-88.098999 30.962999 7.5349998
-88.097 30.962999 7.3379998
-88.098999 30.965 7.1409998
-88.098999 30.965 6.9450002
-88.099998 30.966 6.7480001
-88.098999 30.966 6.5510001
-88.097 30.966 6.355
-88.098 30.966999 6.158
-88.096001 30.966 5.9619999
-88.097 30.966999 5.7659998
-88.097 30.968 5.5689998
-88.098 30.969 5.3730001
-88.098 30.969 5.177
-88.097 30.969999 4.9809999
-88.096001 30.969999 4.7849998
-88.096001 30.969999 4.5890002
-88.096001 30.971001 4.3930001
-88.098 30.972 4.197
-88.097 30.972 4.0009999
-88.097 30.972 3.8050001
-88.096001 30.973 3.609
-88.095001 30.973 3.4130001
-88.095001 30.973 3.217
-88.096001 30.974001 3.0209999
-88.095001 30.974001 2.826
-88.095001 30.975 2.6300001
-88.094002 30.975 2.434
-88.094002 30.975 2.2379999
-88.092003 30.975 2.043
-88.092003 30.976 1.847
-88.093002 30.976999 1.651
-88.091003 30.976 1.456
-88.092003 30.976999 1.26
-88.091003 30.976999 1.0650001
-88.089996 30.978001 0.86900002
-88.088997 30.978001 0.67299998
-88.088997 30.978001 0.47799999
-88.089996 30.979 0.28200001
-88.088997 30.979 0.086999997
-88.091003 30.983 -0.89099997
-88.093002 30.983999 -1.087
-88.208 30.736 28.724001
-88.206001 30.736 28.509001
-88.208 30.738001 28.296
-88.209 30.738001 28.083
-88.208 30.739 27.870001
-88.207001 30.739 27.656
-88.206001 30.739 27.444
-88.206001 30.74 27.231001
-88.205002 30.74 27.018999
-88.206001 30.740999 26.806999
-88.204002 30.740999 26.594999
-88.203003 30.740999 26.382999
-88.204002 30.742001 26.173
-88.204002 30.743 25.962
-88.204002 30.743 25.750999
-88.202003 30.743 25.540001
-88.203003 30.743999 25.330999
-88.200996 30.743999 25.120001
-88.200996 30.743999 24.910999
-88.200996 30.745001 24.701
-88.198997 30.745001 24.492001
-88.199997 30.746 24.283001
-88.198997 30.746 24.073999
-88.197998 30.746 23.865
-88.198997 30.747 23.657
-88.199997 30.747999 23.448999
-88.196999 30.747 23.240999
-88.196999 30.747999 23.033001
-88.195999 30.747999 22.826
-88.195999 30.749001 22.618999
-88.195 30.749001 22.410999
-88.194 30.749001 22.204
-88.194 30.75 21.997999
-88.194 30.75 21.791
-88.194 30.750999 21.584999
-88.195 30.752001 21.379999
-88.193001 30.752001 21.174
-88.194 30.753 20.968
-88.193001 30.753 20.763
-88.193001 30.753 20.558001
-88.192001 30.754 20.351999
-88.191002 30.754 20.146999
-88.190002 30.754 19.943001
-88.192001 30.754999 19.739
-88.192001 30.756001 19.534
-88.192001 30.756001 19.33
-88.193001 30.757 19.127001
-88.192001 30.757 18.923
-88.191002 30.757999 18.719
-88.192001 30.757999 18.516001
-88.191002 30.759001 18.312
-88.190002 30.759001 18.108999
-88.189003 30.759001 17.906
-88.190002 30.76 17.704
-88.191002 30.761 17.500999
-88.190002 30.761 17.299
-88.189003 30.761 17.096001
-88.186996 30.761 16.893999
-88.186996 30.761999 16.691999
-88.185997 30.761999 16.49
-88.186996 30.763 16.289
-88.188004 30.764 16.087
-88.188004 30.764 15.886
-88.184998 30.764 15.684
-88.185997 30.764999 15.483
-88.185997 30.764999 15.283
-88.185997 30.766001 15.082
-88.184998 30.766001 14.881
-88.183998 30.766001 14.68
-88.185997 30.767 14.48
-88.184998 30.768 14.28
-88.182999 30.768 14.08
-88.186996 30.768999 13.88
-88.184998 30.768999 13.68
-88.183998 30.768999 13.48
-88.182999 30.77 13.281
-88.184998 30.771 13.081
-88.184998 30.771 12.882
-88.184998 30.771999 12.683
-88.185997 30.773001 12.484
-88.183998 30.771999 12.284
-88.183998 30.773001 12.085
-88.183998 30.774 11.887
-88.183998 30.774 11.688
-88.181999 30.774 11.489
-88.182999 30.775 11.291
-88.182999 30.775 11.092
-88.181999 30.775999 10.894
-88.181999 30.775999 10.696
-88.181 30.777 10.497
-88.181999 30.777 10.3
-88.181 30.777 10.101
-88.179001 30.777 9.9029999
-88.178001 30.778 9.7060003
-88.18 30.778999 9.5080004
-88.179001 30.778999 9.3100004
-88.179001 30.778999 9.1129999
-88.181 30.781 8.9160004
-88.179001 30.781 8.7180004
-88.179001 30.781 8.5209999
-88.18 30.782 8.3240004
-88.179001 30.782 8.1269999
-88.178001 30.782 7.9289999
-88.178001 30.782999 7.7329998
-88.179001 30.784 7.5359998
-88.179001 30.784 7.3390002
-88.18 30.785 7.1420002
-88.178001 30.785 6.9450002
-88.18 30.785999 6.7490001
-88.178001 30.785999 6.552
-88.177002 30.785999 6.355
-88.178001 30.787001 6.1589999
-88.178001 30.787001 5.9629998
-88.178001 30.788 5.7659998
-88.177002 30.788 5.5700002
-88.177002 30.789 5.3740001
-88.178001 30.790001 5.177
-88.177002 30.790001 4.9809999
-88.177002 30.791 4.7849998
-88.179001 30.792 4.5890002
-88.176003 30.791 4.3930001
-88.177002 30.792 4.197
-88.177002 30.792999 4.0009999
-88.176003 30.792999 3.8050001
-88.175003 30.792999 3.609
-88.177002 30.794001 3.4130001
-88.175003 30.794001 3.217
-88.176003 30.795 3.0209999
-88.176003 30.796 2.826
-88.174004 30.795 2.6300001
-88.174004 30.796 2.434
-88.174004 30.796 2.2379999
-88.172997 30.797001 2.043
-88.174004 30.797001 1.847
-88.172997 30.797001 1.651
-88.171997 30.798 1.456
-88.170998 30.798 1.26
-88.171997 30.799 1.064
-88.170998 30.799 0.86900002
-88.169998 30.799 0.67299998
-88.169998 30.799999 0.477
-88.170998 30.799999 0.28200001
-86.119003 30.084999 -0.29800001
-88.291 30.555 28.729
-88.291 30.555 28.514999
-88.288002 30.555 28.299999
-88.291 30.556999 28.087999
-88.292 30.558001 27.875
-88.288002 30.556999 27.660999
-88.288002 30.556999 27.448
-88.288002 30.558001 27.236
-88.287003 30.558001 27.024
-88.289001 30.559999 26.812
-88.288002 30.559999 26.6
-88.288002 30.561001 26.389
-88.288002 30.561001 26.177999
-88.287003 30.561001 25.966999
-88.286003 30.562 25.756001
-88.283997 30.561001 25.545
-88.283997 30.562 25.334999
-88.282997 30.562 25.125
-88.281998 30.563 24.915001
-88.280998 30.563 24.705
-88.279999 30.563 24.495001
-88.280998 30.563999 24.287001
-88.279999 30.563999 24.077999
-88.278999 30.565001 23.868999
-88.278999 30.565001 23.660999
-88.280998 30.566 23.452999
-88.280998 30.566999 23.245001
-88.279999 30.566999 23.038
-88.279999 30.568001 22.83
-88.278999 30.568001 22.622999
-88.278999 30.569 22.416
-88.278999 30.569 22.209
-88.278 30.569 22.002001
-88.277 30.57 21.795
-88.278999 30.570999 21.59
-88.278 30.570999 21.384001
-88.278999 30.572001 21.177999
-88.280998 30.573 20.973
-88.278 30.573 20.767
-88.277 30.573 20.561001
-88.277 30.573999 20.356001
-88.276001 30.573999 20.150999
-88.275002 30.573999 19.945999
-88.276001 30.575001 19.742001
-88.276001 30.576 19.538
-88.275002 30.576 19.334
-88.275002 30.577 19.129999
-88.274002 30.577 18.926001
-88.274002 30.577 18.722
-88.273003 30.577999 18.518999
-88.272003 30.577999 18.315001
-88.271004 30.577999 18.112
-88.271004 30.579 17.909
-88.270004 30.579 17.705999
-88.271004 30.58 17.504
-88.271004 30.58 17.301001
-88.270004 30.580999 17.099001
-88.270004 30.580999 16.896999
-88.270004 30.582001 16.695
-88.268997 30.582001 16.493
-88.267998 30.582001 16.291
-88.268997 30.583 16.09
-88.267998 30.583 15.888
-88.267998 30.584 15.687
-88.266998 30.584 15.486
-88.266998 30.584999 15.285
-88.267998 30.586 15.084
-88.266998 30.586 14.883
-88.266998 30.586 14.683
-88.266998 30.587 14.482
-88.267998 30.587999 14.282
-88.265999 30.587999 14.082
-88.267998 30.589001 13.882
-88.266998 30.589001 13.682
-88.266998 30.59 13.482
-88.266998 30.59 13.283
-88.264999 30.59 13.083
-88.265999 30.591 12.884
-88.266998 30.591999 12.685
-88.265999 30.591999 12.485
-88.264999 30.593 12.286
-88.264 30.593 12.087
-88.264 30.593 11.888
-88.264999 30.594 11.689
-88.264 30.594 11.491
-88.263 30.594999 11.292
-88.263 30.594999 11.094
-88.262001 30.594999 10.895
-88.264 30.597 10.697
-88.261002 30.596001 10.499
-88.261002 30.597 10.301
-88.260002 30.597 10.103
-88.260002 30.597 9.9049997
-88.261002 30.598 9.7069998
-88.261002 30.599001 9.5089998
-88.259003 30.599001 9.3120003
-88.260002 30.599001 9.1140003
-88.259003 30.6 8.9169998
-88.260002 30.601 8.7189999
-88.259003 30.601 8.5220003
-88.259003 30.601999 8.3249998
-88.259003 30.601999 8.1280003
-88.259003 30.603001 7.9299998
-88.259003 30.603001 7.7329998
-88.258003 30.603001 7.5359998
-88.260002 30.605 7.3400002
-88.260002 30.605 7.1430001
-88.259003 30.606001 6.9460001
-88.260002 30.606001 6.75
-88.258003 30.606001 6.553
-88.260002 30.607 6.3559999
-88.259003 30.608 6.1599998
-88.258003 30.608 5.9629998
-88.257004 30.608 5.7670002
-88.255997 30.608 5.5700002
-88.258003 30.610001 5.3740001
-88.258003 30.610001 5.178
-88.259003 30.611 4.9819999
-88.257004 30.611 4.7849998
-88.257004 30.612 4.5890002
-88.258003 30.612 4.3930001
-88.258003 30.613001 4.197
-88.258003 30.613001 4.0009999
-88.258003 30.614 3.8050001
-88.255997 30.614 3.609
-88.257004 30.615 3.4130001
-88.254997 30.614 3.217
-88.257004 30.615999 3.0209999
-88.255997 30.615999 2.826
-88.254997 30.615999 2.6300001
-88.255997 30.617001 2.434
-88.252998 30.617001 2.2379999
-88.253998 30.618 2.0420001
-88.251999 30.618 1.847
-88.252998 30.618 1.651
-88.252998 30.618999 1.455
-88.250999 30.618999 1.26
-88.251999 30.620001 1.064
-88.251999 30.620001 0.86799997
-77.212997 26.792 0.075000003
-88.371002 30.372 28.733
-88.371002 30.372999 28.518999
-88.369995 30.372999 28.305
-88.369995 30.374001 28.091999
-88.371002 30.375 27.879
-88.369995 30.375 27.666
-88.367996 30.375 27.452
-88.367996 30.375999 27.24
-88.367996 30.375999 27.028
-88.367996 30.377001 26.816
-88.365997 30.377001 26.604
-88.365997 30.377001 26.392
-88.365997 30.378 26.181
-88.367996 30.379 25.971001
-88.364998 30.379 25.759001
-88.363998 30.379 25.549
-88.363998 30.379999 25.337999
-88.362 30.379999 25.128
-88.360001 30.379999 24.917999
-88.362999 30.381001 24.709
-88.359001 30.381001 24.499001
-88.361 30.382 24.290001
-88.358002 30.382 24.080999
-88.360001 30.382999 23.872999
-88.359001 30.382999 23.664
-88.362 30.385 23.457001
-88.358002 30.384001 23.247999
-88.357002 30.384001 23.040001
-88.358002 30.385 22.833
-88.358002 30.386 22.625999
-88.358002 30.386 22.419001
-88.356003 30.386 22.211
-88.356003 30.386999 22.004999
-88.353996 30.386999 21.798
-88.353996 30.388 21.591999
-88.355003 30.388 21.386
-88.355003 30.389 21.18
-88.355003 30.389999 20.974001
-88.353996 30.389999 20.768999
-88.351997 30.389999 20.563
-88.350998 30.389999 20.358
-88.350006 30.391001 20.153
-88.350006 30.391001 19.948
-88.351997 30.392 19.743999
-88.350006 30.392 19.540001
-88.350006 30.393 19.334999
-88.350998 30.393999 19.132
-88.350998 30.393999 18.927999
-88.348999 30.393999 18.724001
-88.350006 30.395 18.521
-88.350006 30.396 18.316999
-88.350006 30.396 18.114
-88.350006 30.396999 17.910999
-88.348999 30.396999 17.708
-88.350006 30.398001 17.506001
-88.348999 30.398001 17.302999
-88.348999 30.399 17.101
-88.348999 30.4 16.899
-88.348 30.4 16.697001
-88.348 30.4 16.495001
-88.347 30.400999 16.292999
-88.346001 30.400999 16.091999
-88.347 30.402 15.89
-88.347 30.403 15.689
-88.345001 30.402 15.488
-88.346001 30.403 15.287
-88.347 30.403999 15.086
-88.346001 30.405001 14.885
-88.345001 30.405001 14.685
-88.345001 30.405001 14.484
-88.346001 30.406 14.284
-88.343002 30.406 14.084
-88.347 30.407999 13.884
-88.347 30.407999 13.684
-88.345001 30.407999 13.484
-88.345001 30.409 13.284
-88.346001 30.41 13.085
-88.344002 30.41 12.885
-88.346001 30.410999 12.686
-88.345001 30.410999 12.487
-88.345001 30.412001 12.288
-88.344002 30.412001 12.089
-88.343002 30.412001 11.89
-88.343002 30.413 11.691
-88.344002 30.414 11.492
-88.342003 30.414 11.293
-88.343002 30.415001 11.095
-88.343002 30.415001 10.897
-88.344002 30.416 10.699
-88.342003 30.416 10.5
-88.343002 30.417 10.302
-88.342003 30.417 10.104
-88.342003 30.417999 9.9060001
-88.341003 30.417999 9.7080002
-88.339996 30.417999 9.5100002
-88.341003 30.419001 9.3129997
-88.339996 30.419001 9.1149998
-88.341003 30.421 8.9180002
-88.339996 30.421 8.7200003
-88.339996 30.421 8.5229998
-88.339996 30.422001 8.3260002
-88.338997 30.422001 8.1280003
-88.338997 30.423 7.9310002
-88.339996 30.424 7.7340002
-88.338997 30.424 7.5370002
-88.339996 30.424999 7.3400002
-88.338997 30.424999 7.1440001
-88.338997 30.426001 6.947
-88.339996 30.426001 6.75
-88.339996 30.427 6.5539999
-88.341003 30.427999 6.3569999
-88.338997 30.427999 6.1599998
-88.337997 30.427999 5.9640002
-88.337997 30.429001 5.7670002
-88.337997 30.429001 5.5710001
-88.336998 30.43 5.3740001
-88.338997 30.431 5.178
-88.338997 30.431 4.9819999
-88.339996 30.431999 4.7859998
-88.337997 30.431999 4.5900002
-88.338997 30.433001 4.3940001
-88.338997 30.434 4.197
-88.339996 30.434999 4.0009999
-88.338997 30.434999 3.8050001
-88.337997 30.434999 3.609
-88.338997 30.436001 3.4130001
-88.336998 30.436001 3.217
-88.339996 30.437 3.0220001
-88.336998 30.437 2.826
-88.336998 30.438 2.6300001
-88.334 30.437 2.434
-88.335999 30.438 2.2379999
-88.334999 30.438999 2.0420001
-88.334 30.438999 1.847
-88.334 30.438999 1.651
-88.334 30.440001 1.455
-88.334 30.440001 1.2589999
-88.333 30.441 1.064
-88.332001 30.441 0.86799997
-77.346001 26.657 0.075000003
-77.302002 26.642 -0.097000003
-77.288002 26.638 -0.26800001
-77.317001 26.649 -0.43900001
-88.450996 30.190001 28.738001
-88.454002 30.191 28.525
-88.455002 30.191999 28.311001
-88.452003 30.191999 28.097
-88.453003 30.193001 27.884001
-88.454002 30.194 27.671
-88.453003 30.194 27.458
-88.452003 30.195 27.245001
-88.450996 30.195 27.033001
-88.452003 30.195999 26.820999
-88.450996 30.195999 26.608999
-88.450996 30.197001 26.398001
-88.447998 30.195999 26.186001
-88.448997 30.197001 25.975
-88.446999 30.197001 25.764
-88.447998 30.198 25.554001
-88.446999 30.198 25.343
-88.445999 30.198999 25.132999
-88.445 30.198999 24.923
-88.445 30.200001 24.712999
-88.444 30.200001 24.504
-88.445 30.201 24.295
-88.442001 30.201 24.086
-88.443001 30.202 23.877001
-88.442001 30.202 23.669001
-88.442001 30.202999 23.461
-88.439003 30.202 23.252001
-88.441002 30.202999 23.045
-88.441002 30.204 22.837
-88.438004 30.204 22.629
-88.438004 30.205 22.422001
-88.436996 30.205 22.215
-88.436996 30.205999 22.009001
-88.436996 30.205999 21.802
-88.436996 30.207001 21.596001
-88.439003 30.208 21.389999
-88.434998 30.207001 21.184
-88.436996 30.209 20.978001
-88.435997 30.209 20.773001
-88.435997 30.209999 20.566999
-88.436996 30.209999 20.362
-88.435997 30.211 20.157
-88.433998 30.211 19.952
-88.434998 30.212 19.747999
-88.433998 30.212 19.542999
-88.433998 30.212999 19.339001
-88.431999 30.212999 19.135
-88.431999 30.212999 18.931
-88.431999 30.214001 18.726999
-88.433998 30.215 18.524
-88.433998 30.216 18.320999
-88.433998 30.216 18.118
-88.433998 30.216999 17.915001
-88.431999 30.216999 17.712
-88.433998 30.218 17.509001
-88.431999 30.218 17.306999
-88.431999 30.219 17.104
-88.431999 30.219 16.902
-88.431 30.219999 16.700001
-88.43 30.219999 16.497999
-88.429001 30.219999 16.296
-88.431 30.221001 16.094999
-88.43 30.222 15.893
-88.43 30.222 15.692
-88.43 30.223 15.491
-88.429001 30.223 15.29
-88.428001 30.224001 15.089
-88.429001 30.225 14.888
-88.43 30.226 14.688
-88.429001 30.226 14.487
-88.429001 30.226 14.287
-88.427002 30.226 14.086
-88.427002 30.226999 13.886
-88.428001 30.228001 13.686
-88.428001 30.229 13.486
-88.428001 30.229 13.287
-88.429001 30.23 13.087
-88.429001 30.231001 12.888
-88.428001 30.231001 12.688
-88.427002 30.231001 12.489
-88.426003 30.232 12.29
-88.427002 30.232 12.091
-88.426003 30.233 11.892
-88.427002 30.233999 11.693
-88.427002 30.233999 11.494
-88.426003 30.235001 11.295
-88.426003 30.235001 11.097
-88.424004 30.235001 10.898
-88.426003 30.236 10.7
-88.425003 30.237 10.502
-88.425003 30.237 10.304
-88.424004 30.238001 10.106
-88.422997 30.238001 9.908
-88.421997 30.238001 9.71
-88.422997 30.239 9.5120001
-88.421997 30.239 9.3140001
-88.424004 30.240999 9.1169996
-88.422997 30.240999 8.9189997
-88.421997 30.240999 8.7220001
-88.420998 30.242001 8.5240002
-88.421997 30.242001 8.3269997
-88.420998 30.243 8.1300001
-88.421997 30.243 7.9320002
-88.422997 30.243999 7.7360001
-88.422997 30.245001 7.5380001
-88.420998 30.245001 7.3410001
-88.421997 30.246 7.145
-88.420998 30.246 6.948
-88.422997 30.247999 6.7509999
-88.420998 30.247 6.5539999
-88.421997 30.247999 6.3579998
-88.421997 30.249001 6.1609998
-88.421997 30.25 5.9640002
-88.419998 30.25 5.7680001
-88.420998 30.25 5.572
-88.420998 30.250999 5.375
-88.421997 30.252001 5.1789999
-88.419998 30.252001 4.9819999
-88.421997 30.253 4.7859998
-88.419998 30.253 4.5900002
-88.420998 30.254 4.3940001
-88.420998 30.254999 4.198
-88.418999 30.254999 4.0019999
-88.420998 30.256001 3.806
-88.418999 30.256001 3.609
-88.420998 30.257 3.414
-88.418999 30.257 3.2179999
-88.420998 30.257999 3.0220001
-88.417 30.257999 2.826
-88.417999 30.257999 2.6300001
-88.417999 30.259001 2.434
-88.417 30.259001 2.2379999
-88.415001 30.259001 2.0420001
-88.417 30.26 1.846
-88.415001 30.261 1.651
-88.414001 30.261 1.455
-88.414001 30.261 1.2589999
-88.412003 30.261 1.063
-88.412003 30.261999 0.86799997
-88.412003 30.261999 0.67199999
-88.535004 30.007999 28.743
-88.531998 30.007999 28.528999
-88.537003 30.01 28.316
-88.533997 30.01 28.101999
-88.531998 30.01 27.888
-88.529999 30.01 27.674
-88.531998 30.011 27.462
-88.532997 30.011999 27.25
-88.530998 30.011999 27.037001
-88.528 30.011999 26.823999
-88.528999 30.013 26.613001
-88.530998 30.014 26.402
-88.528999 30.014 26.190001
-88.527 30.014 25.979
-88.528 30.014999 25.768
-88.527 30.016001 25.556999
-88.528 30.017 25.348
-88.524002 30.016001 25.136
-88.525002 30.017 24.927
-88.527 30.018 24.718
-88.523003 30.017 24.507
-88.522003 30.018 24.298
-88.519997 30.018 24.089001
-88.521004 30.018999 23.881001
-88.519997 30.018999 23.672001
-88.519997 30.02 23.464001
-88.518997 30.02 23.254999
-88.518997 30.021 23.048
-88.522003 30.023001 22.841
-88.521004 30.023001 22.632999
-88.521004 30.024 22.426001
-88.517998 30.023001 22.219
-88.521004 30.025 22.013
-88.521004 30.025 21.806
-88.519997 30.025999 21.6
-88.518997 30.025999 21.393999
-88.518997 30.027 21.188
-88.522003 30.028 20.983
-88.519997 30.028999 20.777
-88.519997 30.028999 20.570999
-88.519997 30.030001 20.365999
-88.518997 30.030001 20.160999
-88.519997 30.031 19.957001
-88.518997 30.032 19.752001
-88.518997 30.032 19.547001
-88.518997 30.032999 19.343
-88.518997 30.032999 19.139
-88.515999 30.032999 18.934999
-88.514 30.032999 18.731001
-88.516998 30.035 18.528
-88.514 30.034 18.323999
-88.512001 30.034 18.120001
-88.511002 30.035 17.917
-88.512001 30.035 17.714001
-88.512001 30.035999 17.511999
-88.511002 30.037001 17.309
-88.510002 30.037001 17.106001
-88.511002 30.038 16.903999
-88.510002 30.038 16.702
-88.509003 30.039 16.5
-88.511002 30.040001 16.299
-88.510002 30.040001 16.097
-88.508003 30.040001 15.895
-88.508003 30.041 15.694
-88.509003 30.042 15.493
-88.508003 30.042 15.292
-88.508003 30.042999 15.091
-88.507004 30.042999 14.89
-88.507004 30.042999 14.689
-88.507004 30.044001 14.489
-88.508003 30.045 14.288
-88.507004 30.045 14.088
-88.508003 30.046 13.888
-88.507004 30.047001 13.688
-88.508003 30.048 13.488
-88.508003 30.048 13.288
-88.509003 30.049 13.089
-88.507004 30.049 12.889
-88.505997 30.049999 12.69
-88.508003 30.051001 12.491
-88.505997 30.051001 12.291
-88.504997 30.051001 12.092
-88.505997 30.052 11.893
-88.503998 30.052 11.694
-88.504997 30.052999 11.496
-88.503998 30.052999 11.297
-88.504997 30.054001 11.098
-88.503998 30.055 10.9
-88.504997 30.056 10.702
-88.503998 30.056 10.503
-88.503998 30.056999 10.305
-88.502998 30.056999 10.107
-88.501999 30.056999 9.9090004
-88.501999 30.058001 9.7110004
-88.502998 30.059 9.5129995
-88.501999 30.059 9.3149996
-88.501999 30.059999 9.118
-88.500999 30.059999 8.9200001
-88.500999 30.061001 8.7220001
-88.500999 30.061001 8.5249996
-88.500999 30.062 8.3280001
-88.500999 30.062 8.1300001
-88.500999 30.063 7.9330001
-88.500999 30.063999 7.7360001
-88.500999 30.063999 7.539
-88.500999 30.065001 7.342
-88.502998 30.066 7.145
-88.499001 30.066 6.948
-88.501999 30.066999 6.7519999
-88.5 30.066999 6.5549998
-88.500999 30.068001 6.3579998
-88.5 30.068001 6.1609998
-88.499001 30.069 5.9650002
-88.5 30.07 5.7680001
-88.5 30.07 5.572
-88.499001 30.070999 5.375
-88.5 30.072001 5.1789999
-88.500999 30.072001 4.9829998
-88.5 30.073 4.7870002
-88.5 30.073 4.5900002
-88.5 30.073999 4.3940001
-88.500999 30.075001 4.198
-88.5 30.075001 4.0019999
-88.5 30.076 3.806
-88.5 30.077 3.6099999
-88.5 30.077 3.414
-88.499001 30.077 3.2179999
-88.499001 30.077999 3.0220001
-88.498001 30.079 2.826
-88.496002 30.077999 2.6300001
-88.496002 30.079 2.434
-88.497002 30.08 2.2379999
-88.496002 30.08 2.0420001
-88.495003 30.080999 1.846
-88.496002 30.080999 1.65
-88.495003 30.082001 1.454
-88.491997 30.080999 1.2589999
-88.491997 30.082001 1.063
-88.491997 30.083 0.86699998
-88.492996 30.083 0.671
-88.491997 30.084 0.47600001
