-0.00340271 -0.00238609 -0.00480461 -0.00413895 -0.012839 -0.00635147 -0.0117989 -0.0122414 -0.00162888 -0.013813 -0.00069809 -0.00488663 0.0538006 0.223376 0.315662 0.279091 0.225441 -55.7189 0.178242 0.0731926 0.222301 -55.7189 0.130842 0.0855293 0.0997658 0.0631714 -55.7189 -0.00815392 -0.0535984 -0.00385284 -0.00477982 -0.00621796 -0.0080719 -55.7189 -0.0463219 -0.00758362 0.00634003 -0.0300179 -0.0106735 -0.00587654 -0.00632286 -0.0092144 0.0492261 0.201118 0.359283 0.279705 0.314247 0.272873 -55.7189 -55.7189 0.237599 -55.7189 0.298276 0.280254 -55.7189 -55.7189 0.0243187 -0.00232697 0.0032196 0.00682068 -0.00314331 0.00344276 0.00430107 0.00514984 0.00543976 0.00179799 0.00426865 0.00513077 -0.000701904 -0.00402832 0.0525932 -55.7189 -0.00607872 -0.00485039 -0.00699234 -0.0294609 -0.00835037 -0.0164604 -0.0685921 -0.00681305 0.0197906 0.164886 0.324905 0.300896 0.304409 0.29214 0.30463 -55.7189 -55.7189 0.103301 0.108362 0.106535 0.0948524 0.0954323 0.0694695 0.0800476 -55.7189 0.0560379 -5.72205e-005 -0.00392787 -0.00242233 -0.00329971 -0.00878525 -0.00161743 -0.000165939 -0.00349426 0.00176048 -0.000675201
-0.00650787 -0.00592422 -0.00721741 -0.00747299 -0.0084343 -0.0111618 -0.0124092 -0.00818253 -0.00207901 -0.0134544 -0.00727463 -0.00913048 0.0378647 0.177647 0.314756 -55.7189 0.225952 0.183277 -55.7189 0.178781 0.208351 -55.7189 0.106613 0.0815544 0.0749512 0.0574532 -55.7189 -0.0190353 -0.0960464 -0.000576019 -0.00628281 -0.0111637 -0.00277328 -0.0208206 -0.0266724 -0.00223351 -0.00131226 -0.0164261 -0.00265884 -0.00698853 0.00387192 -0.00507736 0.0269604 0.204505 0.356815 0.277885 0.303446 0.294205 -55.7189 0.072588 0.296738 0.299408 0.302555 0.296349 -55.7189 -55.7189 0.0594521 -0.00693512 -0.00526428 0.00226402 -6.48499e-005 -0.00208282 -0.00300217 -0.00177765 0.00419617 -0.00220108 -0.00192261 0.00841522 0.000804901 -0.00108147 0.0249278 -55.7189 -0.0031147 -0.00442696 -55.7189 -0.0419388 -0.0108948 0.000629425 -55.7189 -0.0660362 0.00925446 0.216511 0.32753 0.311825 0.296004 0.286514 0.298523 -55.7189 -55.7189 0.0928745 0.150524 0.0803871 0.0870857 0.089447 0.0585861 0.0593262 0.0505114 -55.7189 -0.00777435 0.00238419 -0.00837326 -0.00202942 -0.0016346 -0.000295003 -0.00289536 0.00326538 -0.00111389 -0.00553513
-0.00950623 -0.00337601 0.00228119 -0.0188141 -0.00152206 -0.00683594 -0.00513077 -0.0114841 -0.00592995 -0.00182343 -0.00320435 -0.00982666 0.0388813 0.163029 0.310949 -55.7189 0.236477 0.201401 -55.7189 0.0689011 0.199631 -55.7189 0.138458 0.0913239 0.0868568 0.0538559 -55.7189 -0.00426102 -0.010006 -0.0109444 -0.00939941 -0.00280952 -0.0077877 -0.0212364 -0.025898 -0.00599289 -0.0101128 -0.00974274 -0.00469589 -0.0097847 -0.00942612 0.00159836 0.0159836 0.224172 0.346382 0.27634 0.294243 0.299374 -55.7189 0.0724869 0.224297 0.2924 0.304424 0.319576 -55.7189 -55.7189 0.0610199 -0.0082016 0.00282669 -0.00224304 0.00635529 0.00140381 0.00506592 0.00370026 -0.000286102 0.000883102 -0.000238419 0.00447083 -0.0017643 0.00267792 0.0479546 -0.00674057 -0.00520325 -0.00464249 -55.7189 -0.0598221 -0.00452614 -0.00443649 -0.0974197 -0.00475693 0.0103645 0.144651 0.316967 0.295784 0.2994 0.282894 0.303734 -55.7189 -55.7189 0.113018 -55.7189 0.0705166 0.0818119 0.0928669 0.101217 0.0689125 0.0559845 -55.7189 0.00106812 -0.00523949 -0.001297 0.000514984 -0.011219 0.00141335 -0.00216675 -0.0080452 0.00334549 9.91821e-005
-0.00484467 -0.00301743 -0.000759125 -0.00720215 -0.0100441 -0.00669861 -0.0154152 -0.00572586 0.000740051 -0.014183 -0.0173416 -0.0153923 0.0272255 0.230444 0.35461 -55.7189 0.21154 0.194206 -55.7189 0.0621777 0.16445 -55.7189 0.130323 0.0797729 0.0878754 0.0480957 -0.00727081 -0.00850105 -0.0047226 -0.013354 -0.00842285 0.000766754 -0.00828171 -0.0161629 -55.7189 -0.0406399 -0.00163651 -0.00192642 -0.00296402 -0.000375748 -0.00378418 -0.010149 0.0175489 0.163355 -55.7189 0.276459 0.291832 0.294323 -55.7189 0.168455 0.265589 0.296066 0.295847 0.330528 -55.7189 -55.7189 0.0732384 4.57764e-005 -0.00180054 0.00164413 -0.00359726 -0.00450516 0.00154686 0.00951385 0.00604057 -0.00279999 -0.00156021 0.00958633 -0.0100822 0.00611496 0.0294132 -0.00460243 0.00514603 -0.00683403 -55.7189 -0.0322711 -0.0117302 -0.00471878 -0.053297 -0.000282288 0.0502701 0.218475 0.313381 0.301268 0.300425 0.280716 0.306868 -55.7189 0.0998154 0.149689 -55.7189 0.0642014 0.0868263 0.0912666 0.10339 0.0640717 0.0501747 0.0139008 -0.00437164 0.00141525 -0.00686646 0.00661087 -0.000648499 -0.00141716 -0.0053215 0.0012207 0.00125504 0.000952403
-0.00845909 -0.010128 -0.00143623 -0.00815392 -0.00682831 -0.0105133 -0.0070343 -0.00398254 -0.000915527 -0.00808716 -0.00688171 -0.00396347 0.0111631 0.193372 0.349661 -55.7189 0.205738 0.210808 -55.7189 0.159945 0.1654 0.181988 0.136917 0.131126 -55.7189 0.0608864 0.0196667 -0.0103378 -0.00338364 -0.00569153 -0.00448227 -0.00127792 -0.0122566 -0.00334549 -55.7189 -0.0488253 0.00162888 -0.00261497 -0.00621605 -0.00657654 -0.00331879 -0.0106201 0.0260086 0.189604 -55.7189 0.294811 0.3125 0.280787 -55.7189 0.0779591 0.231333 0.331326 0.306591 0.321167 -55.7189 0.0771179 -55.7189 -0.00731087 -0.00198555 0.00369263 -0.00370407 0.00222015 0.000581741 -0.000236511 0.00950241 -0.0018425 -0.00577545 0.0150566 0.00147247 0.0001297 0.0357742 -0.0034256 0.00920868 -0.00568771 -0.0042572 -0.0108147 0.0030098 -0.00402451 -0.0544014 -0.00325775 0.0234985 0.25996 0.306265 0.302601 0.287792 0.305237 0.288906 -55.7189 0.178265 0.126154 -55.7189 0.11771 0.081459 0.090311 0.0780678 0.0978661 0.0541534 0.0370178 0.0134773 -0.00553894 -0.00298882 0.0018692 -0.00220235 0.00173378 -0.00362396 -0.0041275 -0.00242615 -0.000452042
-0.00696182 -0.0206413 -0.0141792 -0.0152512 -0.0168114 -0.0169449 -0.0160484 -0.0155334 -0.0142403 -0.00826645 -0.0112019 -0.00739479 0.0322698 0.114344 0.170958 0.178497 0.170202 0.168625 0.116421 -55.7189 0.113848 0.144146 0.167564 0.18713 0.11495 0.0722771 0.0622292 -0.014576 -0.00345993 -0.00578308 -0.00457382 -0.00471115 -0.0140591 -0.00385857 -55.7189 -0.0513954 -0.0123177 0.000473022 -0.00660133 -0.00416565 -0.0113335 -0.00044632 0.00615692 0.189335 0.13129 0.2312 0.170418 0.169693 0.114613 0.112762 0.179842 0.180794 0.183706 0.159676 0.148548 0.0788383 -55.7189 -0.00259781 -0.00911331 0.00417328 0.000709534 0.000198364 -0.00625992 -0.000484467 -0.00481415 0.000516891 -0.00125694 0.00695419 0.00310008 0.00248718 0.0481873 0.00737762 3.43323e-005 -0.00118256 -0.00297165 -0.00437164 -5.59489e-005 -0.00722122 -0.0445518 0.00695038 0.0555407 0.199309 0.205839 0.2099 0.181095 0.198822 0.210032 0.115063 0.111973 0.0968552 0.0660629 0.078448 0.0643883 0.0629616 0.0619583 0.0634766 0.0550537 0.0523796 0.000162125 -0.00508118 0.00114822 -0.00485039 0.0021553 -0.00172424 -0.00365829 0.00622559 0.00252533 -0.000648499
-0.0121651 -0.0208359 -0.00452805 -0.0143204 -0.00893402 -0.00567245 -0.00718498 -0.00707626 -0.00956535 -0.0130234 -0.00761032 -0.00700569 0.0266685 0.0359039 0.0535393 0.0330486 0.0734291 0.032917 0.0422421 0.0380802 0.035471 0.0323353 0.0396843 0.0415325 0.0539703 0.0385323 0.0497169 -0.0157909 0.00140381 -0.00704765 -0.00494957 -0.0050869 -0.0023613 -0.0126152 -0.102341 0.000864029 0.00198364 -0.00873947 -0.00626183 -0.00581932 -0.00467491 -0.00834656 0.0289879 0.0409393 0.0415707 0.0444717 0.0409012 0.0487633 0.0720406 0.0319176 0.0405121 0.0403976 0.0572955 0.0434799 0.0345497 0.0414848 0.0101509 -0.00518799 -0.00740051 -0.00281525 -0.00390053 -0.000679016 0.00312424 0.00169373 -0.000652313 -0.00087738 -0.00125885 0.00637436 -0.00402451 0.00104141 0.0346832 0.0236855 0.00297165 -0.00231552 -0.00115204 -0.00188573 -0.000713348 -55.7189 -0.048378 0.00748444 0.0289078 0.0828438 0.0377407 0.024264 0.0316467 0.0528844 0.0440941 0.0372734 0.0395215 0.0519753 0.0549583 0.0736122 0.0371838 0.0431366 0.0322914 0.0236397 0.0330524 0.00268555 -0.00767136 -0.000110626 -0.0030632 0.00411606 0.00368118 0.0115376 -0.00231552 0.00156593 0.000199636 -0.00317001
-0.015358 -0.0155067 -0.0119209 -0.0172749 -0.00820033 -0.00900269 -0.0044136 -0.00728607 -0.00576782 -0.00553131 -0.00514221 -0.0186462 -0.00996399 -0.0029068 -0.0171871 -0.0110016 -0.00547791 -0.0102463 -0.0164833 -0.00951767 -0.0145836 -0.0136871 -0.00494385 7.62939e-005 -0.0116425 -0.00855827 -0.00976372 -0.0100327 -0.0162888 -0.00476456 -0.0104942 -0.00627136 -0.00233269 -55.7189 -0.108967 -0.00844574 -0.00346565 -0.00794411 -0.0105743 -0.00119019 -0.0110931 -0.00151443 0.000617981 -0.00636292 -0.00191498 -0.00748062 0.00986862 -0.00439326 -0.00274277 -0.00801849 -0.000713348 5.72205e-005 -0.00985336 0.00891495 -0.00709915 0.00332642 -0.000980377 -0.00182851 0.0064621 0.00243759 0.00189209 0.00630569 -0.00788116 -0.00314331 -0.00304031 0.00255966 0.00275421 -0.00150108 -0.00117874 3.62396e-005 0.0529404 -55.7189 -0.00233841 0.00213623 -0.00257111 -0.00213242 -0.00212479 -0.0137939 -0.00754547 -0.0366096 -0.00824356 -0.00535011 -0.00980377 -0.00684357 -7.62939e-006 -0.00473022 -0.00280762 -0.0110588 -0.00174967 -0.000967026 0.00252342 -0.0013752 -0.00389862 -0.004879 -0.00700378 0.00271034 0.00537491 -0.0042038 0.00881958 -0.000110626 0.00291252 -0.00573921 0.00069046 0.000362396 -0.00178146 0.00400543 -0.00409698 -0.00382996
-0.55994 0.000282288 -0.0149288 -0.00926971 -0.012001 -0.019619 -0.0155487 -0.0122795 -0.0151329 -0.013422 -0.0165329 -0.01684 -0.0129433 -0.0104408 -0.0100441 -0.00871658 -0.00997162 -0.00278854 -0.00820923 -0.0105705 -2.28882e-005 -0.0171223 -0.0115948 -0.0104809 -0.0149117 -0.023407 -0.0160255 -0.0243492 -0.014801 -0.0598545 -0.0603409 -0.0626335 -0.0433299 -0.0988884 -0.0575294 -0.0561123 -0.0174179 -0.022007 -0.0106697 -0.0554428 -0.0529327 -0.0566216 -0.0634384 -0.0449448 -0.00439644 -0.00681114 -0.00644175 -0.00520325 8.39233e-005 -0.000953674 -0.00748062 -0.00159454 -0.00166702 0.00467682 -0.00365257 -0.0065403 -0.00283623 -0.00244141 0.00471497 -0.00113297 -0.0050621 0.00564575 -0.00357819 -0.00597763 0.00481033 -0.00298564 -0.00345484 -0.00408554 -0.0081749 0.00851059 0.0512714 -55.7189 -0.000679016 -0.00300217 -0.00113805 -0.00481606 -0.00305748 -0.00673676 -0.0713959 -0.012249 -0.0262947 -0.0741984 0.0076828 -0.00731659 -0.00259209 -0.00346375 -0.00291061 -0.000827789 -0.00768534 -0.00817108 0.003685 -0.00376129 -0.00380325 -0.00677109 -0.00529226 -0.000827789 -0.00423241 0.00263596 0.00396347 0.0036602 -0.00540924 -0.0108948 -0.00373077 -0.00405884 0.0020752 -0.00261815 0.00449562 -0.00897598
-0.895239 -0.0150566 -0.0109558 -0.0202217 -0.0124435 -0.0133362 -0.0101662 -0.0118675 -0.00439835 -0.0111732 0.000621796 -0.0144348 -0.0127678 -0.02771 -0.357746 -0.295134 -0.290468 -0.273529 -0.273707 -0.284082 -0.306543 -0.404675 -0.362982 -0.339565 -0.319959 -0.419141 -0.249087 -0.240027 -0.313601 -0.187992 -0.39896 -0.354968 -0.346436 -0.491344 -0.259434 -0.33101 -0.295229 -0.295137 -0.573963 -0.554119 -0.286116 -0.505316 -0.389058 -0.366282 -0.288503 -0.341346 -0.232655 -0.296809 -0.277828 -0.270339 -0.290993 -0.310058 -0.367636 -0.282213 -0.363775 -0.252885 -0.00622559 -0.00453568 0.00600815 -0.00789642 0.00431442 -0.00333786 -0.00261688 0.00163269 0.00139491 -0.00627899 0.00862885 -0.00394058 0.00338364 -0.00183868 0.0393562 -55.7189 -0.00202942 -0.0083828 0.00484848 0.00188065 0.00296021 0.00113678 -0.324966 -0.281321 -0.234591 -0.356162 -0.270579 -0.296576 -0.418799 -0.354846 -0.295936 -0.316423 -0.245633 -0.2803 -0.347789 -0.380972 -0.266681 -0.182951 -0.396568 -0.336987 -0.406995 -0.323868 -0.346388 -0.255882 0.00139618 -0.000869751 -0.00818253 0.00141017 0.00611687 0.00601959 -0.00255203 -0.00706863
-0.922721 -0.00556183 -0.00226974 -0.00683022 -0.00635147 -0.00933647 -0.00559616 -0.00294113 0.00374985 -0.00472641 -55.7189 -55.7189 -55.7189 -55.7189 -0.575539 -0.571812 -0.573135 -0.574656 -0.571186 -0.569052 -0.571739 -0.574081 -0.566586 -0.565548 -0.570011 -0.57616 -0.564838 -0.571562 -0.38555 -0.569017 -0.577438 -0.574665 -0.292471 -0.298315 -0.300907 -0.286652 -0.283005 -0.386866 -0.379926 -0.385962 -0.56801 -0.572498 -0.571838 -0.563354 -0.576447 -0.560287 -0.566605 -0.573589 -0.572685 -0.571304 -0.570934 -0.573856 -0.573761 -0.567699 -0.575008 -0.242665 -0.00970078 -0.00177193 -0.00346565 0.0050087 -0.00349426 -0.00166702 0.000728607 0.00106239 -8.7738e-005 0.00470734 0.0039978 -0.00522995 -0.00404549 0.00811958 0.0368032 -55.7189 -0.00248909 -0.00587463 0.00259399 -0.00356293 -0.00248337 -55.7189 -0.548565 -0.577129 -0.567835 -0.57053 -0.570721 -0.578854 -0.57597 -0.57378 -0.584583 -0.572563 -0.566895 -0.563402 -0.567863 -0.570023 -0.555225 -0.576515 -0.570736 -0.581535 -0.573704 -0.569811 -0.572664 -0.272295 0.00532532 -0.00778961 0.008255 0.00300026 -0.00146103 0.00400162 -0.00183105 -0.00137901
-0.831771 -0.00622559 -0.00714111 -0.00354004 0.00079155 -0.0103264 -0.00152969 -0.0111465 -0.00461197 -55.7189 -55.7189 -55.7189 -55.7189 -55.7189 -0.578968 -0.558074 -0.536322 -55.7189 -55.7189 -55.7189 -0.532738 -0.568733 -0.573143 -0.568924 -0.567848 -0.577396 -0.573986 -0.473358 -0.496651 -0.491051 -0.471649 -0.458706 -55.7189 -0.564045 -0.578609 -0.5718 -0.537586 -0.501354 -0.56813 -0.513187 -0.504761 -0.526527 -0.568165 -0.559681 -0.577297 -0.567867 -0.575363 -0.535662 -55.7189 -55.7189 -0.561985 -0.53191 -0.558002 -0.572281 -0.573423 -0.232106 0.00471115 0.0114632 0.00752258 0.00233078 0.00550079 0.00592041 -0.000349045 0.00625992 0.0017662 0.00289917 0.00663185 0.00235176 -0.00431824 0.00800705 0.0342884 0.00849915 -0.00182343 -0.00193024 -55.7189 -55.7189 -55.7189 -55.7189 -55.7189 -0.577656 -0.526352 -0.488598 -55.7189 -0.43285 -55.7189 -0.571098 -0.538864 -0.544603 -0.51807 -0.528362 -0.48621 -0.526173 -0.500763 -55.7189 -0.540653 -0.557819 -0.53528 -0.536057 -0.567337 -0.294604 0.00742722 0.00650787 -0.00128937 -0.000148773 0.00578308 0.00214767 0.000221253 0.00094223
-0.916768 -0.00965881 -0.00281525 -0.00874329 -0.00689697 -0.00600433 -0.00252914 -0.00363541 0.00127411 -55.7189 -55.7189 -55.7189 -55.7189 -55.7189 -0.583731 -0.331592 -0.4254 -55.7189 -55.7189 -55.7189 -55.7189 -0.523861 -0.504299 -0.504883 -0.507453 -0.499058 -0.499405 -55.7189 -0.517681 -0.497433 -0.49247 -0.53315 -0.51664 -0.507006 -0.498081 -0.514519 -55.7189 -55.7189 -55.7189 -0.490614 -0.472202 -55.7189 -0.500996 -0.506201 -0.498243 -0.502413 -0.366184 -0.303944 -55.7189 -55.7189 -0.335384 -55.7189 -55.7189 -0.514183 -0.567696 -0.314097 -0.00576019 0.00193024 0.00234604 0.00679016 0.000541687 0.00418854 0.00075531 0.00200272 -0.00622177 0.00383759 0.0047493 -0.000717163 -0.00205612 -0.00195313 0.0257053 0.00642395 -0.0030117 -0.00568771 0.00469971 -55.7189 -55.7189 -55.7189 -55.7189 -0.572601 -0.545558 -0.35886 -0.314817 -55.7189 -0.506935 -0.493964 -0.489296 -55.7189 -55.7189 -0.33357 -0.452091 -55.7189 -0.482769 -0.521198 -0.50127 -0.494019 -55.7189 -55.7189 -0.567036 -0.244139 0.00562477 0.000724792 0.00445461 -0.00273514 -0.00151825 0.0137405 -0.0042572 0.00761986
-1.27976 -0.016304 -0.00703049 0.0052948 0.000350952 -0.00488663 -0.00450706 -0.00443649 -0.0057373 -55.7189 -55.7189 -55.7189 -55.7189 -55.7189 -0.598349 -0.330775 -55.7189 -55.7189 -55.7189 -0.483353 -0.508526 -0.507867 -0.475658 -0.496475 -55.7189 -55.7189 -0.522076 -0.52335 -0.503456 -55.7189 -0.52676 -0.488306 -0.505043 -0.495922 -0.296049 -0.114548 -0.51445 -55.7189 -0.513607 -0.194462 -0.500557 -0.504141 -0.494467 -0.486515 -0.508316 -0.389763 -0.301929 -0.311342 -0.300877 -0.414249 -0.46419 -0.479608 -55.7189 -55.7189 -0.577206 -0.25659 -0.00289536 -0.00304604 0.00213242 0.00125122 0.00282478 -0.00370026 -0.00133896 -0.0038147 0.0071106 -0.00392532 -0.00123215 0.00536728 0.00126902 0.00100199 0.0480995 0.0305595 -0.000652313 0.00153351 0.0172501 -55.7189 -55.7189 -55.7189 -55.7189 -0.581474 -0.527431 -0.495485 -0.469366 -0.476894 -55.7189 -0.270821 -0.153041 -55.7189 -55.7189 -0.345159 -0.335016 -55.7189 -0.50705 -0.322895 -0.318338 -55.7189 -55.7189 -55.7189 -0.572073 -0.34349 0.00817871 0.00640106 0.00425148 0.000102997 0.00487137 0.0051651 0.00343418 0.00155449
-0.828047 -0.00184631 -0.00550079 -0.00589561 -0.00364304 -0.00902939 -0.00825119 -0.0030098 -0.00564575 -55.7189 -55.7189 -55.7189 -55.7189 -55.7189 -0.564915 -0.318147 -55.7189 -55.7189 -0.497618 -0.505669 -0.499674 -0.270945 -55.7189 -0.00964737 -55.7189 -0.0267982 -0.523045 -0.493845 -0.327521 -55.7189 -0.479778 -55.7189 -0.258787 -0.00190735 -0.00257874 0.00245667 -55.7189 -0.518353 -55.7189 -0.458683 -0.51152 -0.499977 -0.49844 -0.220665 -55.7189 -0.383507 -0.4077 -0.448164 -0.464396 -0.484236 -0.47842 -0.396099 -0.415386 -55.7189 -0.568211 -0.295246 -0.0023098 0.00484848 0.0131798 -0.00488281 -0.00209236 0.00626373 0.013588 -0.00429535 0.00265312 0.00108719 -0.00235748 -0.00308609 -0.0053997 9.15527e-005 0.0253563 0.0667877 -0.00275421 0.00267982 0.0083313 -55.7189 -55.7189 -55.7189 -55.7189 -0.572964 -0.507876 -0.323254 -0.310677 -0.312105 -0.30666 -0.260878 -0.194647 -0.52375 -0.524921 -0.481943 -0.389008 -55.7189 -0.407513 -55.7189 -0.299215 -0.5242 -55.7189 -55.7189 -0.563534 -0.297186 0.0106239 0.00334295 0.00878334 0.00203323 0.00160789 0.00367737 0.0031414 -0.00143814
-0.834567 -0.00676918 -0.00399971 0.00298691 -0.00426102 0.00239182 -0.00529099 0.00398254 -55.7189 -55.7189 -55.7189 -55.7189 -55.7189 -55.7189 -0.567759 -0.50242 -0.46196 -0.469299 -55.7189 -0.470058 -0.484474 -0.223287 -0.127575 -0.253548 -55.7189 -0.325345 -0.247913 -0.457809 -0.464478 -55.7189 -0.240673 -0.127059 -55.7189 -0.247623 -0.193714 -0.330798 -55.7189 -0.499647 -0.464462 -0.490601 -0.258009 -55.7189 -0.156319 -55.7189 -0.496519 -0.471134 -0.466415 -0.438503 -0.39682 -0.382048 -0.370489 -0.395351 -55.7189 -55.7189 -0.576393 -0.296097 -0.00590134 0.00437164 -0.000873566 -0.0062809 8.39233e-005 -0.00223351 0.00438309 0.0069294 0.00669098 0.00200272 0.00839996 -0.00128937 0.00605011 0.00202179 0.0466932 -55.7189 -0.00154686 -0.00859833 0.000228882 -55.7189 -55.7189 -55.7189 -55.7189 -0.568821 -0.444266 -0.280579 -0.304863 -0.318737 -0.418222 -0.441868 -0.540558 -0.512402 -0.521427 -0.421931 -0.363998 -55.7189 -0.443865 -0.505848 -0.319604 -0.470051 -0.419041 -0.548218 -0.5728 -0.234174 0.00386429 0.000524521 0.00978851 0.00886917 0.00416565 0.00607681 -0.00139999 0.0155487
-0.84231 -0.0065155 -0.00207901 0.00133514 -0.00805664 -0.0111732 0.0048027 -0.00634003 -0.000999451 -55.7189 -55.7189 -55.7189 -55.7189 -55.7189 -0.563869 -0.529327 -0.47308 -0.298313 -0.0387344 -0.457645 -0.388367 -0.389706 -0.410381 -0.483101 -0.485912 -0.2582 -0.334708 -0.178932 -0.00257111 0.00285721 -0.320381 -55.7189 -0.497555 -0.497957 -0.332925 -0.509457 -0.482502 0.000614166 -0.249866 -0.164959 -0.501984 -0.510126 -0.498606 -0.499104 -0.499706 -0.46731 -0.400784 -0.381548 -0.378361 -0.376171 -0.388271 -0.454309 -0.482834 -0.568001 -0.570103 -0.2858 -0.00150935 0.00478745 0.0013485 -0.00390625 0.0103493 0.00148773 0.00562286 0.00846863 0.000881195 -0.00025177 0.00297928 -0.00021553 0.00787735 0.00021553 0.0681051 -55.7189 -0.00136566 0.00376511 0.00549316 -55.7189 -55.7189 -55.7189 -55.7189 -0.581252 -0.383939 -55.7189 -0.519089 -0.518047 -0.506546 -0.494534 -0.515614 -0.493744 -0.437355 -0.37154 -0.419518 -0.421783 -0.49855 -0.302963 -0.400929 -0.408958 -55.7189 -0.553572 -0.570736 -0.313305 0.0028038 0.012249 0.00600052 0.00309372 0.00612259 0.00456429 0.00370026 0.00599098
-0.852295 0.00276947 0.00222015 -0.000293732 -0.0104942 -0.00737 4.95911e-005 -0.0022831 -0.00465393 -55.7189 -55.7189 -55.7189 -55.7189 -55.7189 -0.572071 -0.374174 -0.00391388 -55.7189 -55.7189 -55.7189 -0.463142 -0.424618 -0.400814 -0.344707 -55.7189 -0.254939 -55.7189 -0.357487 -0.00223923 -55.7189 -0.506641 -0.492527 -0.00139618 -0.0293961 -55.7189 -55.7189 -55.7189 -55.7189 -55.7189 -55.7189 -0.50481 -55.7189 -55.7189 -55.7189 -0.330986 -55.7189 -0.393353 -0.390793 -0.375124 -0.407661 -0.410557 -0.401306 -55.7189 -0.495945 -0.281746 -0.191597 -0.000358582 0.00812531 -0.00557327 0.0141754 0.0102882 0.00497818 0.00125504 0.0155106 0.000495911 0.00500743 0.00123596 0.00153351 -0.00191498 0.00551605 0.0448742 -55.7189 -0.00244904 -0.00355053 -55.7189 -55.7189 -55.7189 -55.7189 -55.7189 -0.565132 -0.307949 -55.7189 -55.7189 -55.7189 -55.7189 -0.00791931 -55.7189 -55.7189 -0.385086 -0.37982 -0.378799 -0.377216 -0.362362 -0.204412 -0.323517 -55.7189 -55.7189 -0.573887 -0.373215 -0.298216 -0.000169754 -0.00146866 0.00979424 0.00304031 1.52588e-005 -0.00200462 -0.00450516 0.0141373
-1.24939 -0.00483704 0.00134087 0.00626183 -0.00138664 -0.00675964 5.34058e-005 -0.00770187 -0.00273514 -55.7189 -55.7189 -55.7189 -55.7189 -0.00050354 -0.00733948 0.00769043 -55.7189 -55.7189 -55.7189 -55.7189 -0.406704 -0.39786 -0.403851 -0.358446 -55.7189 -0.363192 -0.190954 -0.36808 -55.7189 -55.7189 -55.7189 0.0041008 0.00660324 -0.0117226 -0.0134315 -0.00485229 -55.7189 -55.7189 -55.7189 -55.7189 -55.7189 -55.7189 -55.7189 -55.7189 -55.7189 -55.7189 -0.396782 -0.398983 -0.394936 -0.381275 -55.7189 -55.7189 0.00305557 0.0113106 0.0101624 -0.00244141 0.00443649 -0.0012207 0.00102997 -0.00369263 0.00782394 -0.00294685 0.00821114 0.00548172 -0.00132751 0.0112038 -0.00136185 0.00535965 0.00728989 -0.00785828 0.0330709 -55.7189 -0.0039266 0.00580215 -55.7189 -55.7189 -55.7189 -55.7189 -55.7189 -0.10078 -0.0234203 0.0037384 -0.00141525 -0.00226212 0.0018959 -0.00388336 -55.7189 -55.7189 -55.7189 -55.7189 -55.7189 -55.7189 -55.7189 -0.352066 -0.169422 -55.7189 -55.7189 -55.7189 -0.00180054 0.00399907 0.00512695 0.0040741 -0.00314331 0.0032196 -0.00588989 0.00460052 0.00489044 0.000286102
-0.834534 -0.00652122 -0.00629807 0.00427246 -0.00156403 -0.0074234 0.00633621 -0.000659943 -0.00101852 -55.7189 -0.0108528 0.00567627 0.0040226 -0.00748062 0.00550079 0.00624466 -0.00461578 -55.7189 -55.7189 -55.7189 -0.404381 -0.395267 -0.375128 -0.343906 -55.7189 -0.243842 -0.216966 -0.254861 0.00365829 0.0096283 -0.000371933 -0.00363541 0.00354004 -0.00308228 -0.0623741 0.00323486 -0.00239563 -0.0398369 0.000400543 0.000875473 0.0011425 0.00429344 -0.0201378 -55.7189 -55.7189 -55.7189 -55.7189 -55.7189 -0.0315399 -0.00390625 0.0099678 0.0108604 0.00801659 0.00884247 0.00511551 -0.00231934 0.00121689 0.00598907 0.00407982 0.00121689 0.00809479 0.00140381 0.00561142 0.00335693 0.0142288 0.00856018 0.00293732 -0.000946045 0.00271034 -0.00135803 0.0505104 -0.00589752 -0.00959015 0.00278854 -0.00336075 0.00497437 0.00137329 -0.0010891 -0.0996628 -0.00911204 0.00581741 -0.00498962 0.00310135 -0.0044899 0.0164032 -0.00610733 -0.00192261 -0.0112228 -0.000816345 -0.00274658 -0.0720406 -55.7189 -0.0397434 -55.7189 0.00436783 -0.0054512 -0.00203705 -0.00102043 -0.00104523 0.00369263 -0.0014267 -0.00130463 0.00303268 0.00210698 -0.000541687 0.000213623 0.0138931 0.00262451
-1.07319 -0.00838852 -0.00891113 -0.000331879 -0.00418472 -0.00152206 -0.000640869 -0.00094986 -0.00564384 0.00496101 -0.00101852 -0.00688934 -0.00616455 -0.00540161 -0.00782776 0.0046196 -0.014431 -55.7189 -55.7189 -55.7189 -0.403053 -0.400684 -0.404945 -0.379648 -0.367369 -0.14688 -0.221055 -0.110662 0.00185776 0.00805664 -0.0051384 0.00753403 -0.00283813 -0.0039711 -0.0830402 0.00153351 -0.000711441 -0.054287 0.00311915 0.000614166 0.00555801 0.00411224 0.00516129 0.0015831 0.000946045 -0.00452423 -0.00347137 0.000143051 0.00281906 0.00194931 0.0035553 0.00608635 -0.00260162 -0.0064621 -0.00761795 -0.00882912 0.000785828 0.00725937 0.0108414 0.00456619 0.00482178 0.00402451 0.00301552 -0.00172424 0.00332451 0.010128 -8.01086e-005 0.00653458 0.00943375 0.00636673 0.0323181 -0.00929642 -0.00922012 -0.0016861 0.00037384 0.0078392 0.00185776 -0.00567627 -0.0643031 -0.00522614 -0.00925827 0.00356293 -0.00411987 0.0164471 0.0138626 -0.000780106 -0.00141144 -0.00186157 0.000682831 -0.000274658 -0.00654984 -0.00720978 -0.00191116 0.0157852 0.0170517 0.00453568 -0.0139542 0.00161552 0.00193024 -0.000774384 -0.00193787 0.00366211 0.00346851 0.000602722 0.00287628 0.00449753 0.00688553 0.0115395
-0.00853729 -0.00727844 -0.0113487 -0.000995636 -0.00626564 -0.00182915 -0.000465393 0.00113678 -0.00255585 0.00507736 -0.00541306 -0.000425339 -55.7189 -0.0048275 -0.0182037 0.00263786 -55.7189 -55.7189 -55.7189 -55.7189 -55.7189 -55.7189 -55.7189 -55.7189 -55.7189 -0.0914688 -0.0141449 -0.00239182 0.00317383 0.0063324 0.00743484 0.00723267 0.0202332 -0.00858307 -0.0882759 0.00766881 -55.7189 -0.0297699 0.00247192 0.00610352 0.0128326 -0.00229645 -0.00906753 0.00514412 0.00713921 0.0346909 0.0214272 0.0105019 -0.019619 -0.00761032 -0.0208054 -0.0267315 -0.0237703 -0.0286674 -0.0229301 -0.0345116 -0.0146027 0.0170364 0.00722885 0.003479 0.00111135 0.00592613 0.014883 0.00546646 0.00900269 0.00495911 0.00541687 0.00879669 0.00378418 -0.0022939 0.0650368 -0.00237656 -0.00238419 0.00370407 -0.00579071 -0.00648117 0.00315475 -0.000827789 -0.0335414 0.00185013 0.0345929 0.0872154 0.1208 0.0957832 0.122671 0.125801 0.114697 0.0973244 0.0900688 0.0908966 0.0847359 0.0822201 0.0720177 0.0701008 0.0641022 0.0710144 0.0809593 0.0151901 0.00217819 0.00644112 -0.0050354 -0.00277328 0.00418091 0.000305176 -0.00725937 -0.00107574 -0.000408173 0.001489
0.0049057 0.000802994 -0.000715256 0.00213623 -55.7189 0.00507355 -0.00130081 0.00529099 0.0164795 -0.000957489 -0.00637817 0.00545692 -0.0210457 0.0348028 -55.7189 0.123947 0.102135 -55.7189 0.0483246 -0.0365028 -0.0633926 -55.7189 0.0286598 0.0273247 0.0229492 -0.0245476 -0.0130119 -0.0350647 0.00172806 0.0106812 -0.00784683 0.00913811 0.00271734 0.00735855 -0.0409374 0.00166321 -55.7189 -0.0463155 -0.00374603 -0.00351524 0.00389099 0.000261307 -0.00094986 0.0788975 0.0715714 0.0480232 0.036129 0.0398216 0.00608063 -0.0102539 -0.030014 0.0952988 0.0891457 0.101994 -55.7189 0.00388718 -0.0161018 0.0113869 -0.000314713 0.0044988 0.00710297 0.00580978 0.00961685 0.00574112 0.0108948 0.019886 0.00493622 0.00668335 0.00186793 -1.90735e-005 0.0395489 0.00675583 -0.00696182 -0.00309753 -0.0032692 -0.000387192 0.000127157 -0.0108414 -0.0378284 -0.00151443 0.0606181 0.116486 -55.7189 0.170673 0.184994 0.210243 0.200916 0.189026 0.16423 0.105672 -55.7189 0.167309 0.197025 0.14785 0.159927 0.131958 0.089325 0.0616341 0.00145721 0.00660706 0.00135422 0.00518036 -0.000492096 -0.000440598 0.0024395 -0.00136375 -0.0116806 0.00197983
0.00107574 -0.00817299 0.00691223 -0.00226212 -0.000415802 -0.00190735 -0.00276566 -0.00135803 0.00117493 -0.000749588 0.00056839 0.00370026 -0.0184975 0.089447 0.120508 0.108456 0.104691 -55.7189 0.0597534 -0.0276871 0.125122 -55.7189 0.0353088 0.0226631 0.0139771 -0.0322628 -0.00657272 -0.0120373 0.00104141 0.00797844 0.000663757 0.00712204 0.00546646 -55.7189 -0.0585937 0.00458145 -55.7189 -0.0177091 -0.00118256 0.00114059 0.00350952 0.00302505 -0.00281525 0.0735855 0.121674 0.0410423 0.0543938 0.0297794 0.00517273 -0.0313301 0.103124 0.0928268 0.142345 0.12994 -55.7189 0.00379944 -0.0209579 0.00825882 0.0105515 0.0145683 0.00156021 0.0118294 0.0105286 0.0102043 0.00812912 0.0107841 0.00153923 0.00592232 0.00160599 0.00482941 0.0306473 0.0182877 -0.00325012 -0.00152779 -0.000177383 0.00253868 -55.7189 -0.0474052 -0.0222397 -0.00395584 0.0391121 0.230768 -55.7189 0.216507 0.201672 0.208364 0.22147 0.188353 -55.7189 0.126892 0.177782 0.148682 0.17329 0.155437 0.144047 0.130312 0.0885696 0.0637474 -0.00123978 -0.00105476 -0.00309753 0.00500774 0.00195694 -0.000766754 -0.0039711 0.00905228 0.00561523 0.000135422
-0.00590134 0.00302505 0.00392914 0.00362396 0.00628662 0.00220108 0.00281906 -0.00389862 0.00535774 0.000415802 0.00265121 0.0039978 -0.0140419 0.0739899 0.166073 0.120827 0.126534 0.0822487 -55.7189 0.0161247 0.10187 -55.7189 0.0249901 -0.00311279 0.00720978 -0.0191917 -0.0173359 0.00226593 -0.00569916 -55.7189 0.0021286 0.00807571 0.00537872 -55.7189 -0.0110982 0.0033493 -0.0374908 -0.00136185 -0.00101089 -0.00153351 -0.00788116 0.00901794 0.000648499 0.034345 0.142311 0.0447483 0.0562477 0.0350151 0.0247231 0.0256424 0.126961 0.107365 0.13578 0.11665 0.0320034 -55.7189 -0.0128593 0.00666809 0.00630951 0.00242233 0.00421524 0.00981522 0.00970078 0.00336647 0.00217438 0.00774574 0.00928116 0.0111618 0.00154495 0.0039463 0.0357043 -55.7189 0.00520325 -0.00137329 -0.00323105 0.00082016 -55.7189 -0.0310764 -0.0224705 -0.0045166 0.0304155 0.237604 0.237881 -55.7189 0.188208 0.191545 0.191277 0.19289 -55.7189 0.122744 0.161736 0.14938 0.171719 0.148005 0.125423 0.118851 0.107758 0.0658264 0.00347137 0.00436401 -0.00718307 0.000665665 6.48499e-005 -0.0053978 0.000431061 0.00154877 -0.00112025 0.00855637
0.00690842 -0.00376892 -0.000938416 -0.00301743 0.000329971 -0.000703812 -0.00133133 0.000293732 0.00276184 -0.004776 0.00402451 0.00218582 0.00234985 0.0543162 0.162643 0.128494 0.119024 0.098711 -55.7189 0.0644875 0.0918713 -55.7189 0.0354691 0.0233059 -55.7189 -0.0135574 -0.0116081 -55.7189 -0.0131016 0.000152588 0.00576973 0.0174675 0.0039463 -0.00477219 0.00402451 0.0130424 0.00354767 0.00769043 0.00346375 -0.00119781 0.010994 0.00312233 0.00271034 0.0688141 -55.7189 0.0639076 0.0217552 0.0532761 0.0143547 -0.0270615 0.0861677 0.0853767 0.0569172 0.0661602 0.0416527 -55.7189 -0.00828171 0.00995255 0.00539589 0.0136757 0.0033226 0.00861359 0.0142097 0.00956726 0.0093956 0.00969124 0.00832367 0.00815773 0.00535774 -0.000762939 0.0638746 -55.7189 -0.0108871 -0.00642014 -0.00855509 0.000711441 -0.0084877 -0.00391006 -0.0373192 0.00502396 0.0263958 0.164333 0.269901 -55.7189 0.183838 0.181358 0.18808 0.179047 -55.7189 0.110845 0.180635 0.151806 0.158253 0.145784 0.162434 0.124973 0.0800095 0.074379 -0.000484467 0.00482941 0.000489553 0.00443077 -0.00107002 0.00231552 0.00271225 -0.0124435 0.00301743 0.000946045
-0.00108719 0.00378799 0.00644302 0 0.00370026 0.00834274 0.00154877 -0.00376129 0.00904083 -0.000480652 -0.00117111 0.00471687 0.00774892 0.147617 -55.7189 0.126793 0.131306 0.0982819 -55.7189 -0.0374393 0.0516014 0.0589046 0.0250759 -55.7189 0.00252533 -55.7189 -0.0128269 0.00630188 -0.00231934 0.00578117 0.0154457 0.00814438 0.00414658 -0.0100327 -0.00478363 0.0161324 -0.000907898 -0.0157566 0.00572395 0.00787163 0.0100079 0.00529099 -0.000343323 0.049853 -55.7189 0.0705299 0.0568619 0.0334129 0.0351486 -0.031086 0.0907898 0.107342 0.103508 0.0609016 0.0625038 -0.0189514 -0.0141335 0.00696564 0.00643921 0.00610352 0.00514984 0.0112724 0.00819397 0.00569725 0.0103861 0.00201607 0.00622177 0.00379562 0.00386429 0.00177002 0.0452404 -55.7189 -0.0128841 -0.00802135 -0.00451279 -0.0051651 -0.0075798 -0.00307846 -0.0765553 -0.00240326 0.0160351 0.177615 0.287544 -55.7189 0.177027 0.173271 0.184683 0.194645 -55.7189 0.0988693 0.177635 0.161026 0.185581 0.159225 0.153111 0.167437 0.0789299 -55.7189 0.000127792 0.00240326 0.00144196 0.00229263 -0.00121689 -0.00297165 -0.00133705 -0.0115929 0.00467682 -0.00243568
-0.00487518 0.00037384 0.00127792 -0.00515747 -0.00709534 -0.000232697 -0.00347137 -0.00169373 0.00224304 -0.0021019 -0.00331116 0.00690842 0.0162354 0.113622 0.16687 -55.7189 0.124325 0.116444 -55.7189 0.0646534 -0.0163612 0.0684013 0.0157585 0.00688171 0.00845718 -55.7189 -0.0166035 0.00728035 -0.0286255 0.00629425 0.0148087 0.0107346 -0.000846863 0.0108719 -0.0610371 0.00780678 0.00466728 -0.0304871 0.00341034 -0.00896072 0.00146103 0.0075016 -55.7189 0.0459963 0.096138 -55.7189 0.0281677 0.0309258 0.0243492 -0.0388794 0.0910861 0.107796 0.0775833 0.0730286 0.035759 -0.0336609 -0.00714111 0.00141144 0.00556946 0.00937653 0.00782776 0.00769615 0.00855923 0.0106964 0.0040741 -0.00651169 0.00396729 0.0129509 0.00139999 -0.0004673 0.028375 -0.00540924 -0.00428391 0.00136948 -0.00279617 -0.000709534 -0.00564957 -0.0108376 -0.0955658 -0.00176748 0.0169284 0.131619 0.318031 -55.7189 0.178819 0.186016 0.18306 0.192547 -55.7189 0.0950222 0.185379 0.153219 0.186062 0.173246 0.177752 0.167786 0.0728874 -55.7189 0.00233078 -0.00426674 0.000782013 -0.00252533 -0.000751495 -0.000984192 -0.00240707 -0.000617981 0.0060997 -0.0099678
-0.000492096 -0.00660324 0.00104141 -0.00621414 0.00198364 0.00382233 0.00547409 -55.7189 0.00670814 0.0032959 -55.7189 0.00959396 0.00366592 0.0606524 -55.7189 -55.7189 0.123817 0.114159 0.0191956 0.115864 0.0432777 0.101967 0.0338669 0.025856 0.00885963 -0.0266609 -0.0149002 0.0195122 -0.0136757 0.000663757 0.00481796 0.00688553 0.00402451 0.000946045 -0.0862465 -0.00130463 0.00481415 -0.0503922 -0.000228882 0.000717163 0.0143814 0.00250244 -0.00703049 0.0608101 0.112307 -55.7189 0.039978 0.0428848 -55.7189 -0.034935 0.0391337 0.113453 0.102554 0.0877399 0.0639782 -0.0293884 -0.00802994 0.0117645 0.00448227 0.00799561 0.00857798 0.0184174 0.00446701 0.0122032 0.0108986 -0.00146103 0.00465012 0.00384903 0.00105095 0.00225067 0.0520795 -0.00928497 -0.00735092 -0.0129471 -0.00909042 -0.0410652 -0.00335503 -0.00281143 -0.0820503 -0.00469589 0.011219 0.154643 0.318005 0.16354 0.210873 0.191078 0.185318 0.183552 0.0868111 0.134467 0.164089 0.161762 0.209627 0.166195 0.198505 0.17971 0.0887985 -55.7189 -0.0131016 -0.00589752 -0.00252724 7.05719e-005 -0.00499916 -0.000728607 -0.00505829 -0.0079422 0.00559235 -0.00514603
-0.00632477 -0.00488663 -0.000644684 0.00260162 0.00309181 0.00504494 -0.00264549 -55.7189 0.00370598 0.0026741 0.0154839 0.0103149 0.218565 0.0451393 -55.7189 0.13763 0.124718 0.111538 0.0425072 -55.7189 0.0642751 -55.7189 0.0316391 0.0358944 0.0274391 -0.0313187 -0.00684357 0.00360107 0.00341797 0.00548935 0.00886726 0.0151844 0.004673 0.00964355 -0.0962105 0.00317001 0.00418091 -0.0366491 0.006567 0.00365448 0.00567436 0.00995636 0.00141144 0.0938822 0.168167 -55.7189 0.0455952 0.0540428 -55.7189 -0.0230751 0.0778017 0.116468 -55.7189 0.0915642 0.0621529 -0.0183487 -0.00606728 0.0102654 0.00888443 0.0140991 0.01371 0.0100327 0.00814056 0.0124855 0.0145721 0.00765038 0.00845337 0.0193634 -0.000686646 -0.00355148 0.0298901 -0.0091629 -0.00532532 -0.00833893 -0.00726318 -0.0619049 -0.00834656 -0.00481415 -0.104452 -0.00672722 0.0497761 0.23441 -55.7189 0.167389 0.20739 0.185093 0.195103 0.189722 0.138878 0.124321 0.162281 0.161495 0.167423 0.170834 0.159044 0.165949 0.091526 0.00367737 0.00597572 -0.00428391 -0.000709534 -0.00244904 -0.00239944 0.000150681 -0.00888062 -0.00111389 0.00293541 0.00148392
-6.10352e-005 0.00369644 0.0012029 -3.8147e-006 0.00286102 0.00398636 0.0048027 0.00393295 -0.00123596 -4.95911e-005 0.00377083 0.0019989 0.199665 0.14682 -55.7189 0.133572 0.167789 0.116798 -55.7189 -0.0238361 0.129593 -55.7189 0.0533257 -55.7189 -55.7189 0.0262184 -0.0178223 0.00894165 0.00105476 0.00107574 0.0095253 0.00624847 -0.00334167 0.00675964 -0.0612221 -0.00031662 -55.7189 -0.0162048 0.00575256 0.0136414 0.00273514 -0.00547791 0.00767517 0.0787106 0.136517 0.040081 0.0272427 0.0450878 -0.00421906 -55.7189 0.0798655 0.110771 0.0897064 -55.7189 0.0656128 0.00154495 -0.00827408 0.00559998 0.00878906 0.014782 0.00770187 0.0078373 0.0132389 0.0111809 0.0132351 -0.000156403 0.00915527 0.0130157 0.00570107 0.00598907 0.0536041 -0.00327492 -0.0101967 -0.00728607 -0.00855637 -0.0456505 -0.0037117 -0.00335693 -0.0344251 -0.0022049 0.0295931 0.230795 -55.7189 0.165083 0.215811 0.186993 0.201715 0.194885 0.153183 0.107605 0.159039 0.151489 0.183737 0.155823 0.143265 0.155796 0.0947495 0.0300713 -0.0047226 -0.00916672 -0.0112686 -0.00530624 -0.00601578 -0.00526619 0.00285149 -0.00846863 -0.00101471 -0.0028801
0.000461578 0.000919342 -0.000347137 -6.48499e-005 -0.000595093 0.00214386 -0.00397873 0.00333977 0.00142479 -0.00665283 0.0122986 -0.00138855 -0.0259972 0.113513 0.196825 0.197432 0.195724 -55.7189 -55.7189 0.0384738 0.202639 0.206249 0.201237 -55.7189 0.129005 -55.7189 -0.00833511 0.00419998 0.00740814 -0.000648499 0.00948715 0.00522995 0.00153923 -55.7189 -0.0280228 0.00649643 0.00369644 -0.00269318 0.00388718 0.00934982 -0.000747681 0.00309753 0.00398636 0.0852003 -55.7189 0.0584679 0.031826 0.0310402 0.00695419 -0.0233917 0.0631561 0.11742 0.0879974 0.0870132 -55.7189 0.0151138 -0.0223808 0.00274658 0.0119858 0.00765991 0.0133724 0.013504 0.00627518 0.0132141 0.012928 0.0111618 -0.000209808 0.00547791 0.00479507 0.00494385 0.0382633 0.00239944 0.00352478 -0.0117073 -0.0111961 -0.0421295 -0.00826391 -0.00697327 -0.0464687 0.00339508 0.0608635 0.231102 -55.7189 0.194305 0.219707 0.186962 0.195362 0.174702 -55.7189 0.145228 0.153173 0.165508 0.18285 0.160255 0.158653 0.142288 0.10364 0.0496941 -0.00263977 0.00350952 -0.00747108 -0.00571569 -0.0011673 -0.0104218 -0.00763321 -0.00503159 -0.00964355 -0.00705719
-0.00140381 0.0109596 -0.00576401 0.00146103 -0.000835419 0.00281334 0.00613594 -0.00398254 -0.00463104 0.00631714 0.00291061 0.00307465 -0.0179939 0.115922 0.202446 0.211582 0.199215 -55.7189 -55.7189 0.0762787 0.156018 0.210791 0.207493 0.176258 -55.7189 -55.7189 -0.0211906 -0.000614166 0.00610352 0.00315666 0.00785065 -0.00140762 0.0104942 -55.7189 -0.0316486 0.00442123 0.00872421 0.00648499 0.00263214 0.00533676 0.00504684 0.00613976 -0.00105286 0.0532354 0.151531 0.0504646 0.04599 0.0744514 -0.0107117 -0.0236855 0.0909068 0.128328 0.114738 0.0815392 -55.7189 0.0238495 -0.00358486 0.00412178 0.0158215 0.0107918 0.00328064 0.0141945 0.0139236 0.00524139 0.0222893 0.00795237 0.00905863 0.0151405 0.00807953 0.00907135 0.0349846 0.0165176 -0.00582886 -0.00851822 -0.00994873 -0.00456429 -0.012291 -55.7189 -0.0370178 -0.0170059 0.0355587 0.224566 -55.7189 0.23753 0.205166 -55.7189 0.187687 0.176828 -55.7189 0.125694 0.170757 0.161293 0.178844 0.172625 0.157265 0.131432 -55.7189 0.0635185 -0.00712013 -0.00274277 -0.00189972 0.000341415 0.00352859 0.0032196 -0.00889587 -0.00379181 -0.00443904 -0.00696564
-0.00841141 0.00654221 -0.000865936 0.00381279 0.00123596 0.0033226 0.00160599 0.0119896 0.000896454 0.00784683 0.00540924 -0.00147629 0.00063324 0.0913687 0.110521 0.113178 0.119053 0.0559158 -55.7189 0.00650978 0.0927658 0.0847454 0.0882092 0.080246 0.00466919 0.0156021 -0.0252495 0.00452042 -0.00182533 0.00373077 0.000644684 0.0058403 0.00727081 -0.0208778 0.00709152 0.000392914 0.00291061 0.00144958 0.00714684 0.00915146 -0.00101471 -0.000507355 0.00990295 0.0560417 0.0998116 0.112917 0.0725136 0.0669708 0.0353546 -0.0283203 0.0763639 0.0786743 0.0241261 0.0291939 0.0492306 -0.0233002 -0.0113716 0.010006 0.00844574 0.00928879 0.0102959 0.0117302 0.00546265 0.0127945 0.0159302 0.00431252 0.0126114 0.000465393 -0.00207901 0.0197868 0.0472431 -55.7189 -0.007658 -0.0100365 -0.00537872 -0.00898743 -0.00885391 -0.0275612 -0.0134335 -0.0041523 0.0270576 0.185168 0.150206 0.17462 0.174925 0.159477 0.126671 0.122372 0.119846 0.0923704 0.106426 0.118391 0.144725 0.0706062 0.113514 0.137724 -55.7189 0.0693893 -3.43323e-005 -0.00367355 -0.002985 -0.0174866 -0.0127869 -0.0146236 -0.0103607 -0.00555801 -0.00613785 -0.00543594
-0.00275803 0.00904655 0.00456429 0.00458908 0.0058403 -0.0102119 -0.00265884 0.00518799 0.00393677 0.00408554 0.00797844 0.00261497 0.00257492 0.0067215 -0.0152588 -0.0190926 -0.0236702 -0.00500488 -0.00621414 -0.00481224 0.00478745 -0.0100479 -0.0049057 -0.0135727 -0.0125961 -0.00343704 -0.00500679 -0.00201416 0.00241852 -0.00254059 0.0139618 0.0035553 0.00246048 -0.0134697 -0.0259075 0.00185585 0.00695992 0.00507736 -0.00470734 0.00230789 -0.000682831 0.00751877 -4.95911e-005 0.00197474 0.0190868 0.0135136 -0.0169106 -0.00821304 -0.00801849 -0.00864029 -0.00942612 -0.0142136 0.00758743 0.0127296 -0.00738716 -0.0112991 -0.00968552 0.0179901 0.0162125 0.0072937 0.00878143 0.0108013 0.0112572 0.00693893 0.00893974 0.00928879 0.0021019 0.00307655 0.00728416 0.0136566 0.0486221 -55.7189 -0.00868225 -0.00717926 -0.00459099 -0.00319862 -0.00457764 -0.0179062 -0.0510902 -0.0121803 0.0120449 0.0643692 0.0710106 0.0544764 0.0389175 0.0439892 0.0409927 0.0289828 0.0589294 0.0612411 0.0747128 0.0341969 0.0411224 0.0372314 0.0217781 0.0415115 0.0474186 0.0579033 -0.0125237 -0.00899887 -0.00520452 -0.00632858 -0.000907898 0.00684738 0.000812531 -0.0184364 -0.00535202 -0.00989914
0.00307465 0.00671768 -0.00188446 0.0138588 0.00836563 0.00452805 -0.00413513 0.00173569 0.00456429 0.00606918 0.0113297 0.0105286 0.00173187 0.000709534 0.00112343 0.00634193 0.00618362 0.000398 -55.7189 0.000650406 0.00668335 0.00650024 0.0049324 0.00499725 0.0107651 0.000646591 0.00540924 -0.000705719 0.0068512 0.00512695 0.000450134 0.00307465 0.00547409 -0.00232506 -0.063118 -0.00363159 0.00761795 0.00122833 0.00366211 -0.00487137 0.000492096 0.00387192 0.00952657 0.00749969 0.00767899 0.00978088 0.00276184 0.0106468 0.00491714 0.00662041 0.00887108 0.0122166 0.00711823 0.00991058 0.013443 0.0150871 0.00741959 0.00720787 0.00949097 0.00485229 0.010006 0.019352 0.0156822 0.00954628 0.00338554 0.00676537 0.00696182 0.00137711 0.00653076 0.0126381 0.0394611 -55.7189 -0.00830587 -0.00647545 -0.00476456 -0.00769424 -0.00815582 -0.00185394 -0.0887146 -0.00399399 -0.00735664 -0.00818761 -0.00194359 -0.0165062 -0.00233841 -0.00471115 -0.00495148 -0.0110168 -0.0134449 -0.00722504 -0.008461 -0.00263977 -0.00935745 -0.00849152 -0.0117302 0.00287628 -0.000528336 -0.00603676 -0.00371361 -0.0109367 -0.000331879 -0.0114899 -0.0028038 -0.00919342 -0.00934219 -0.00813293 -0.0152893 -0.0202904
0.00283813 0.00212097 -0.00154114 -6.86646e-005 -0.00556946 -0.00317383 0.00359535 0.012331 0.00788116 -0.00316238 0.00717354 -55.7189 0.00551796 0.00415802 -0.175536 0.00802231 0.00450134 0.0127068 0.00914764 0.00484085 0.00643921 0.00676727 0.00532532 0.00855255 0.0170593 -0.00458145 0.00311661 -0.0462799 -0.0426655 -0.0476303 -0.0472012 -0.0487881 -0.0688496 -0.0346756 -55.7189 -0.0711069 -0.0391483 -0.0553417 -0.0509815 -0.0316938 -0.0931931 -0.0271568 -0.0181122 -0.000835419 0.0192604 0.0118866 0.00738907 0.00956345 0.00421333 0.0175133 0.00911713 0.0105667 0.0113487 0.00272369 0.00759697 0.00832558 0.0011673 0.00610352 0.00788116 0.00598907 0.00359726 0.00686646 0.00829951 0.0101337 0.00501633 0.00956726 0.0169792 0.0109177 0.00902939 0.00247192 0.041029 -0.00403595 -0.0120087 -0.00654221 -0.00875854 -0.0133438 -0.00528717 -0.00751114 -0.105995 -0.0219135 -0.0403252 -0.0696964 -0.00553894 -0.00789642 -0.0117226 -0.00284195 -0.0106494 -0.00519562 -0.00553513 -0.0101395 -0.0100784 0.00667191 -0.0130234 -0.0077858 -0.00775337 -0.00508881 -0.00754166 -0.0132408 -0.0122414 -0.0135975 -0.00535965 -0.0102196 -0.00985336 -0.00732295 -0.00464439 -0.0089798 -0.00551605 -0.00980759
-0.945519 -0.0021553 0.00362015 -6.10352e-005 -0.000549316 0.00555038 0.0080719 -55.7189 -0.00490761 0.00267029 0.0111885 0.00362396 0.00665855 -55.7189 -0.359319 -0.238009 -0.278541 -0.263743 -0.302134 -0.302013 -0.282146 -0.344091 -0.336514 -0.236497 -0.335671 -0.37361 -0.257442 -0.204587 -0.366492 -0.289438 -0.28035 -0.28842 -0.379965 -0.261288 -0.310358 -0.502799 -0.334298 -0.240031 -0.294212 -0.285496 -0.276257 -0.347727 -0.350048 -0.25965 -0.258469 -0.213982 -0.310116 -0.359556 -0.26247 -0.229812 -0.294635 -0.26868 -0.248276 -0.199573 -0.287089 -0.309364 -0.000938416 -0.000930786 0.00246811 0.00352478 0.00328064 0.00864919 0.00535202 0.0101814 0.00863266 0.00710297 0.0127449 -0.000213623 -0.000789642 0.00654221 0.0397301 -0.0155563 0.005867 -0.0127373 -0.00629044 -0.00855255 -0.0139046 -0.0105705 -0.109875 -0.310954 -0.228694 -0.426913 -0.255136 -0.366952 -0.283759 -0.225183 -0.328328 -0.315573 -0.292897 -0.341784 -0.328166 -0.306945 -0.182605 -0.341765 -0.294853 -0.376026 -0.28101 -0.378597 -0.301223 -0.236465 -0.00827217 -0.0023365 -0.0106392 -0.00125885 -0.0128078 -0.00301361 -0.0109558 -0.00946617
-0.878141 -0.000329971 0.00284576 0.00409698 0.0181465 0.00786972 0.0157127 0.00853348 0.00251198 0.00595093 0.00357819 -55.7189 -55.7189 -55.7189 -0.565475 -0.573978 -0.577011 -0.572298 -0.579077 -0.573128 -0.577435 -0.580311 -0.577377 -0.581089 -0.573334 -0.572237 -0.571131 -0.351819 -0.286421 -0.378441 -0.290913 -0.282545 -0.281065 -0.378342 -0.567841 -0.147403 -0.291946 -0.287491 -0.285688 -0.295925 -0.57436 -0.570648 -0.572552 -0.568432 -0.565498 -0.56929 -0.568439 -0.578312 -0.57317 -0.565506 -0.576332 -0.568607 -0.576275 -0.577644 -0.571697 -0.271581 -0.00263977 0.00168228 0.00339127 0.00224177 0.00835037 0.0083847 0.0110092 0.015995 0.000659943 -0.00367737 0.0108376 0.0108795 0.00722122 0.00342178 0.060482 -0.00980377 -0.0146942 -0.00471306 -0.00919151 -0.00472641 -0.0120811 -55.7189 -55.7189 -0.576694 -0.577684 -0.56921 -0.578768 -0.572586 -0.570583 -0.566704 -0.569851 -0.578577 -0.574852 -0.576458 -0.573338 -0.569103 -0.238912 -0.298357 -0.389139 -0.436569 -0.56897 -0.571388 -0.57568 -0.295393 -0.000167847 -0.0016861 0.000919342 -0.00771713 -0.00811005 -0.00502586 -0.00500679 -0.00735474
-0.808378 -0.0315399 0.00338364 0.00499725 0.0172195 0.00122833 0.00390625 0.00814438 0.00727081 -55.7189 -55.7189 -55.7189 -55.7189 -55.7189 -0.563946 -0.568346 -0.556473 -55.7189 -55.7189 -55.7189 -0.559299 -0.565563 -0.576912 -0.568573 -0.534269 -0.486977 -0.550579 -0.564041 -0.56274 -0.574902 -0.577892 -0.573254 -0.534367 -55.7189 -0.500824 -0.530178 -0.572365 -0.565956 -0.573116 -0.575642 -0.541185 -0.524052 -0.55489 -0.566399 -0.57019 -0.556385 -0.568668 -0.56477 -0.565552 -0.49501 -0.492249 -55.7189 -0.568996 -0.567841 -0.562991 -0.199355 0.00304794 0.0132179 0.00486183 -0.00189972 -0.00380707 -0.0037117 0.00534248 0.00995064 0.003582 0.00663376 -0.00231934 0.00377083 0.00663376 -0.00196075 0.0432396 -0.0096283 -0.00748062 -0.00793839 -0.00498581 -55.7189 -55.7189 -55.7189 -55.7189 -0.565521 -0.546894 -0.493069 -55.7189 -0.481647 -55.7189 -0.575699 -0.567432 -55.7189 -55.7189 -55.7189 -55.7189 -0.551678 -0.564579 -0.580589 -0.549152 -0.489431 -0.504597 -55.7189 -0.572086 -0.276561 0.00736237 -0.00378418 -0.00369644 -0.0010891 -0.00226212 -0.00526047 -0.00675583 0.00294495
-0.938255 -0.389565 -0.0184364 0.000392914 0.00136566 0.00410652 0.0065136 0.00811386 0.010704 -55.7189 -55.7189 -55.7189 -55.7189 -55.7189 -0.570034 -0.402466 -0.493042 -55.7189 -55.7189 -55.7189 -0.498734 -0.504162 -0.505886 -0.505548 -0.515156 -0.486259 -55.7189 -0.489483 -0.503483 -0.495064 -0.503174 -0.506788 -0.508919 -55.7189 -0.508129 -55.7189 -0.499409 -0.514931 -0.516232 -0.514465 -55.7189 -55.7189 -55.7189 -55.7189 -0.456762 -0.479645 -55.7189 -0.492537 -0.444168 -0.417725 -0.42028 -0.449272 -0.497883 -0.547729 -0.568691 -0.293268 -0.00444794 0.00235367 0.0027504 0.00214005 0.00636673 0.00620842 0.00813293 -0.000663757 0.00214386 0.00299454 0.0090332 0.000576019 0.0107956 0.00731468 0.0337143 0.000564575 -0.0143051 -0.0234299 -0.0159683 -55.7189 -55.7189 -55.7189 -55.7189 -0.570698 -0.513331 -0.364677 -0.357973 -0.492615 -0.501091 -0.507427 -0.345914 -55.7189 -55.7189 -0.491802 -0.507641 -0.508385 -0.522596 -0.510883 -55.7189 -55.7189 -0.516117 -55.7189 -0.572412 -0.314719 0.00312424 0.00202688 -0.0062027 0.0148811 0.00370026 0.00248337 -0.00276947 -0.00203196
-0.740171 -0.118921 -0.000671387 -0.162716 -0.00124741 0.00203323 0.0124626 0.00508118 0.000175476 -55.7189 -55.7189 -55.7189 -55.7189 -55.7189 -0.566532 -0.382974 -0.480114 -55.7189 -55.7189 -0.496925 -0.513054 -0.493753 -0.488378 -55.7189 -55.7189 -0.478138 -55.7189 -0.516491 -0.441933 -0.473785 -55.7189 -0.316753 -0.421825 -0.458885 -0.494171 -0.489338 -0.50034 -0.485809 -55.7189 -0.501163 -0.517994 -0.522606 -0.491413 -0.502918 -0.482294 -0.485069 -0.413136 -0.393017 -0.39756 -55.7189 -0.427258 -0.454697 -0.487434 -0.549774 -0.576546 -0.234873 0.00448227 0.00177002 -0.00591469 0.00563622 0.00927925 -0.00658798 0.0115929 0.00729752 -0.00209427 0.00233459 0.00410843 0.00971985 0.0126343 -0.000110626 0.0293236 0.0219879 -0.0188789 -0.0115013 0.00635338 -55.7189 -55.7189 -55.7189 -55.7189 -0.583043 -0.524496 -0.478964 -0.462229 -55.7189 -0.427715 -0.406033 -0.228771 -55.7189 -0.508469 -0.508118 -0.50445 -0.487518 -0.520866 -55.7189 -0.499039 -0.525742 -0.51173 -0.560371 -55.7189 -0.323163 0.000938416 -0.00813866 0.00568771 -0.00526047 0.00285339 0.00178719 0.00404485 0.00337219
-1.26985 0.000173569 0.00327301 -0.20364 0.0110207 0.00530624 0.00997162 0.00517273 0.00380135 -55.7189 -55.7189 -55.7189 -55.7189 -0.566231 -0.570374 -0.278381 -0.4972 -0.422226 -0.484791 -0.501373 -0.491699 -0.239594 -0.50808 -55.7189 -0.508152 -0.491917 -0.500197 -0.490131 -0.27178 -0.377619 -0.395035 -55.7189 -0.233497 -0.128716 -0.433758 -55.7189 -55.7189 -0.314051 -0.0398197 -0.250811 -55.7189 -0.498158 -0.504313 -0.48696 -0.43935 -0.438477 -0.40546 -0.416491 -55.7189 -0.486046 -0.470899 -0.466209 -0.503048 -0.521641 -0.571951 -0.229968 0.00237656 0.00835609 0.00321579 0.00422287 0.00408936 0.00595856 0.00437927 0.00796127 0.000547409 0.00196838 0.00640106 0.00562668 0.00343323 0.00172806 0.0487919 -55.7189 -0.0119514 -0.00792694 -0.0119247 -55.7189 -55.7189 -55.7189 -0.583023 -0.571419 -0.486269 -55.7189 -0.319607 -0.36018 -0.369585 -0.389103 -0.348652 -0.485437 -0.375813 -0.500214 -0.00735092 -0.250069 -0.345838 -55.7189 -0.512997 -0.505594 -55.7189 -0.547844 -0.568829 -0.252362 -0.000398 -0.00276375 0.00717545 0.00334167 -0.00429153 0.00464249 0.00426483 0.00675201
-0.821712 -0.00363159 0.00832748 0.00283813 0.00579071 -0.000732422 0.0132484 0.00308418 0.00806046 -55.7189 -55.7189 -55.7189 -55.7189 -55.7189 -0.573916 -0.506994 -0.453697 -55.7189 -55.7189 0.0090332 -0.486546 0.000701904 -0.466938 -55.7189 -0.507072 -0.503798 -0.477558 -0.41291 -0.436293 -0.347397 -55.7189 -0.442585 -0.377804 -0.275562 -0.0649529 -0.0917511 -0.448322 -55.7189 -55.7189 -0.487865 -55.7189 -0.491257 -0.473812 -55.7189 -55.7189 -55.7189 -0.499445 -0.504892 -0.504406 -0.486969 -0.473106 -0.479805 -55.7189 -0.532352 -0.568321 -0.242342 0.00124741 -0.00147629 -0.00123215 -0.000225067 0.00496674 0.00264549 0.000787735 0.000283559 0.0120697 0.00762558 0.00435638 -0.00508118 0.00650406 0.00504112 0.0310542 -55.7189 -0.0213928 -0.00815964 -55.7189 -55.7189 -55.7189 -55.7189 -55.7189 -0.601553 -0.434274 -0.35989 -0.363663 -55.7189 -0.454365 -0.526016 -0.499815 -55.7189 -55.7189 -0.000583649 -55.7189 -0.338636 -0.256878 -0.247851 -55.7189 -0.506748 -55.7189 -0.535633 -0.567814 -0.253823 -0.000165939 -0.00265121 0.000648499 -0.00583649 0.000320435 0.00198174 -0.00159836 -0.00400543
-1.18169 0.000278473 0.00173187 0.00674438 0.00296021 0.000938416 0.00116539 -0.00493622 -0.00117111 -55.7189 -55.7189 -55.7189 -55.7189 -0.570538 -0.575188 -0.505291 -0.410681 -55.7189 -0.231052 -55.7189 -0.506054 -0.500381 -0.501497 -0.497971 -0.498287 -0.475067 -0.421068 -55.7189 -0.427053 -0.392738 -0.358627 -0.423009 -0.369728 -0.320322 -0.514107 -0.501511 -0.0792834 -0.512009 -0.508766 -0.493551 -0.492546 -0.499855 -55.7189 -0.482702 -0.481152 -0.508354 -0.494873 -0.504917 -0.482033 -55.7189 -0.486431 -55.7189 -0.509443 -0.517004 -0.570995 -0.288416 -0.00278473 0.00418472 0.00776672 0.00346565 0.00759125 0.00546265 0.00823975 0.00279427 0.000724792 0.0059166 -0.000463486 -0.00191498 0.00607109 0.00498581 0.0542514 -55.7189 -0.013471 -0.00942802 -55.7189 -55.7189 -55.7189 -55.7189 -55.7189 -0.585606 -0.381257 -0.283417 -0.521938 -0.48662 -0.499321 -0.501507 -0.489666 -0.000511169 -0.511276 -0.256514 -0.490013 -0.517448 -0.493916 -0.332528 -55.7189 -0.497597 -0.503483 -0.513363 -0.567345 -0.264386 0.00450134 -0.00119781 0.000324249 0.000679016 0.00186157 0.000410716 -0.00179672 0.00580597
-1.66824 0.00069046 0.00133514 0.00354576 -0.000238419 -0.00397873 0.00764084 -0.00162506 -55.7189 -55.7189 -55.7189 -55.7189 -55.7189 -55.7189 -0.562763 -0.298278 -0.202009 0.00367737 -55.7189 -0.495007 -55.7189 -55.7189 -55.7189 -55.7189 -55.7189 -55.7189 -0.380566 -0.39946 -55.7189 -0.474415 -0.4575 -0.358959 -0.355877 -0.216755 -55.7189 -0.160698 -0.00645065 -55.7189 -55.7189 -0.00639725 0.00184631 0.00592804 -55.7189 -55.7189 -55.7189 -55.7189 -55.7189 -55.7189 0.00584412 -55.7189 -55.7189 -0.504917 -55.7189 -55.7189 -0.578217 -0.267874 -0.000688553 0.00062561 -0.0018425 -0.000724792 0.0078125 -0.00491714 -0.00428009 0.00587082 0.00595284 0.0109158 0.00244904 0.00700378 0.0107307 -0.00120926 0.0320415 -0.0118771 -0.0146828 -0.000312805 -55.7189 -55.7189 -55.7189 -55.7189 -55.7189 -0.569843 -0.426286 -55.7189 -55.7189 -55.7189 -0.00564957 -0.0108452 -0.00782776 -55.7189 -55.7189 -55.7189 -55.7189 -0.00231171 0.00411606 -55.7189 -55.7189 -55.7189 -55.7189 -0.590229 -0.573597 -0.272364 -0.0044899 -0.00363159 -0.00233078 0.00171661 -0.000881195 0 0.00792694 0.00514603
-0.846252 0.00170135 0.0084877 0.00485611 0.00846481 0.0095787 0.00418472 0.00342941 -55.7189 -55.7189 -55.7189 -55.7189 -55.7189 -55.7189 -55.7189 -0.000850677 -55.7189 -55.7189 -55.7189 -55.7189 -55.7189 -55.7189 -55.7189 -55.7189 -55.7189 -55.7189 -55.7189 -0.392002 -0.388601 -0.360156 -0.347134 -55.7189 -0.367638 -0.217536 -55.7189 -0.151012 -55.7189 -55.7189 0.000556946 -55.7189 -55.7189 -55.7189 -55.7189 -55.7189 -55.7189 0.00069809 -55.7189 0.00402069 -55.7189 -55.7189 -55.7189 -55.7189 -55.7189 -55.7189 0.00150299 0.00239754 -0.00172806 0.00428391 0.00275421 0.00315475 0.0118179 0.000968933 0.00584412 0.00603676 0.00828934 0.00815582 0.00666046 0.00691223 0.00451088 0.000784556 0.0603428 -0.0129242 -0.00805664 -0.0179214 -55.7189 -55.7189 -55.7189 -55.7189 -55.7189 -55.7189 -55.7189 -55.7189 -55.7189 -0.00633049 -0.00515366 -0.0131035 -55.7189 -55.7189 -55.7189 -55.7189 -55.7189 0.00337728 -55.7189 -55.7189 -55.7189 -55.7189 -55.7189 -55.7189 -0.0205065 -0.000862122 -0.001791 -0.00606155 -0.00260544 -0.000761032 0.0117722 0.00279236 0.00167656 0.0109024
-0.973935 -0.00256348 0.00244904 -0.000579834 0.0048027 0.00177002 -0.00315857 0.000154495 0.00554657 -55.7189 -55.7189 0.00720978 0.00231552 0.000614166 0.0062809 -0.000839233 0.00164795 0.00164413 0.00110626 0.0101395 0.0127144 -4.57764e-005 0.00986481 -0.00645065 -55.7189 -55.7189 -55.7189 -0.397629 -0.373814 -0.343136 -55.7189 -0.375374 -0.184202 -0.291116 -0.0525475 -9.53674e-005 0.000597 0.00618172 -0.000993729 -0.00389481 0.00094986 0.000888824 -0.000770569 0.0106544 0.00208664 0.00527763 0.00466537 0.000247955 0.00669861 -55.7189 -55.7189 -55.7189 -0.000139236 0.00348663 0.00687981 0.00468063 -0.000843048 0.00354767 0.00445366 0.0080897 0.00510025 -0.00125504 0.00413132 -0.00170517 0.00877762 0.00514603 -0.00130463 -0.00387192 0.00701014 -0.00146484 0.0530548 -0.00945663 -0.0186844 -0.0336819 -0.0113735 -55.7189 -55.7189 -0.0113182 -0.0718676 -0.0106354 -0.00623894 -0.00826263 -0.00471687 -0.00364685 -0.00167274 -0.00258255 -0.000732422 0.00319672 -0.00756645 -0.0056324 -0.00398636 -0.00317001 -0.00881958 -55.7189 -55.7189 -55.7189 0.000236511 -0.00253963 0.00135803 0.00814438 -0.00264359 0.00721741 -0.00245921 0.00998878 0.00235939 -55.7189 -55.7189 -55.7189
-1.21447 0.00113678 0.00614166 -0.00281525 -0.000926971 0.00203896 0.00511932 0.00537872 0.00908661 -0.00402069 -0.00349426 0.00101471 -0.0086937 0.0263195 0.0368805 0.0175056 0.000385284 0.0057106 0.0160484 0.00138855 0.0142517 0.00579453 0.0106163 0.0106544 -55.7189 -55.7189 -55.7189 -55.7189 -55.7189 -55.7189 -55.7189 0.00587845 -0.0017395 -55.7189 -0.0198307 0.0037117 0.00216293 0.00523376 -0.0001297 0.00332642 0.00720978 0.00440979 0.00609016 -0.00271225 0.0116844 0.0115662 0.00354385 0.00248337 0.00463486 0.00265121 0.00676346 0.000652313 0.0167847 0.00038147 0.0183907 0.00834656 0.00541306 0.00374031 0.00406647 0.0103836 0.00870132 0.0134087 0.0024147 0.000743866 -0.000757217 0.0106926 0.00494258 0.00102615 0.00368118 0.00119019 0.0399361 -0.0119743 -0.0107574 -0.0454712 -0.0120354 -0.00696564 -0.00387383 -55.7189 -0.0408096 -0.010025 0.023119 -55.7189 0.0089035 -0.00533867 -0.0100784 -0.00904083 -0.00223541 -0.00889587 0.0238914 -55.7189 0.00305748 -0.00210953 -0.00183105 0.00818634 0.00134659 -0.000141144 0.015295 -0.00467682 -0.00801086 0.00782013 -0.00732803 -0.00289726 0.00502777 -0.00230789 -55.7189 -55.7189 -55.7189 -55.7189
-0.0051651 -0.00172424 -0.00344849 0.00358582 0.00616074 -0.0028038 -0.00385284 -0.00281906 0.00345612 -0.00543594 0.00132561 0.00719833 0.0258357 -55.7189 0.134335 0.123356 0.124157 0.12458 0.0859375 0.0885162 0.0849571 0.0781517 0.0696869 0.0705528 -55.7189 -55.7189 0.00530624 -0.00536346 -55.7189 -0.00109291 0.00432968 0.0143013 0.00587463 -0.0117455 0.00525856 -0.000175476 0.000682831 0.00888062 0.011425 -0.000732422 -0.0037384 0.00333214 0.0374985 0.0846176 0.124615 0.118965 0.107803 0.101089 0.0870552 0.0695 0.0757103 0.0794334 0.0748749 0.0784531 0.0743408 0.0834084 0.0267639 0.00368118 0.00762939 0.00749969 0.00678253 0.00465012 0.00376129 0.00905037 0.00138474 0.00742149 0.00867081 0.010025 0.00771713 4.3869e-005 0.0309258 0.0196838 -0.0156326 -0.0125084 -0.00939178 0.00161362 -0.00999959 -0.0349617 -0.00204849 -0.00800323 0.0377045 0.124817 0.130829 0.119295 0.0938873 0.0931511 0.076252 0.128395 0.117409 0.0711632 0.0742874 0.0729294 0.079169 0.0774174 0.0712872 0.0810356 0.0659332 0.0636215 -0.000724792 -0.00427055 -0.00364494 -0.00194931 0.000141144 -55.7189 -55.7189 -55.7189 -55.7189 -55.7189
0.004673 0.000221252 0.00229263 -0.00719833 0.000114441 0.00558853 0.00794601 -0.00466537 0.00593185 -6.29425e-005 -0.00138474 0.00312042 0.0343094 0.125156 -55.7189 -55.7189 0.144447 -55.7189 0.0756016 0.114405 0.143066 0.177826 0.161011 0.175411 -55.7189 0.0779686 -0.0183029 -0.00172043 -0.0044136 -0.0118141 0.00392532 0.000419617 -0.00589561 -0.00650787 -0.00949478 0.00742722 0.00592804 0.0054512 0.00130463 1.71661e-005 0.00746155 0.0107231 0.0418663 0.108387 -55.7189 -55.7189 0.164158 0.163528 0.161552 0.0800629 0.156067 0.0850716 0.100224 0.0877914 0.0793724 0.0838661 0.0690269 0.00400925 0.000862122 0.00879288 0.00595856 0.0084362 0.00445557 -0.00174713 0.00301361 0.000900269 0.00696945 0.00777817 0.00972748 -0.00110626 0.0592028 -55.7189 -0.00627518 -0.0104027 -0.0093015 -0.00299644 -0.0108566 -0.0194893 -0.0189133 -0.0089035 0.0265446 0.155663 0.18858 0.15546 0.169369 0.167675 0.162153 0.165482 -55.7189 0.126429 0.223186 0.104763 0.0887146 0.0863991 0.0894165 0.0534096 0.078846 0.0660973 -0.000705719 -0.0059166 0.000793457 0.0012207 -0.0181389 -55.7189 -55.7189 -55.7189 -55.7189 -55.7189
-0.00271225 -0.00772858 -0.000350952 -0.0031662 -0.00532532 -0.0031929 0.00427628 0.00300217 0.0101719 0.00735474 0.00424576 0.00682449 0.159681 0.176795 -55.7189 0.171627 0.176205 -55.7189 0.0941849 0.111202 0.142164 0.188961 0.173981 0.171955 -55.7189 0.0877419 0.00374222 0.00928879 0.00244141 -0.00288582 -0.0500793 0.0112686 0.00284576 -0.00443268 -0.0487251 -0.0458469 -0.00175858 0.00183678 -0.0127831 -0.0075531 0.00247192 -0.00018692 0.00939369 0.160243 0.328705 -55.7189 0.168762 0.1796 0.159363 0.0726967 0.150265 0.105919 0.0953789 0.0725098 0.0983429 0.059227 0.0705032 0.00112534 0.0030632 0.00625992 0.00218582 0.0139923 0.000423431 0.00803757 0.0111313 0.00619507 0.00148201 0.0130196 -0.000328064 0.00428009 0.0482559 -55.7189 -0.017889 -0.0124569 -0.0341778 -0.0100021 -0.0063324 -0.010601 -0.0618172 -0.0348282 0.0184879 0.124615 0.200855 0.152996 0.177929 0.167903 0.182487 0.182701 -55.7189 0.137576 -55.7189 0.155842 0.0935097 0.0963058 0.11311 0.0928631 0.0907059 0.0679722 0.00724792 0.00300217 0.0037384 -55.7189 -55.7189 -55.7189 -55.7189 -55.7189 -55.7189 -55.7189
0.0103836 -55.7189 0.00238419 -0.0018425 -0.00165558 0.00356038 -0.000862122 0.00686646 -0.00284195 -55.7189 -0.00615692 0.00284767 0.165544 0.114466 -55.7189 0.144211 0.164515 0.121204 -55.7189 0.107294 0.18269 0.175999 0.176266 0.170086 -55.7189 0.0806465 0.0285645 0.00269318 0.00395393 -0.00223923 -0.0499916 0.00543594 0.00233841 -0.00509262 -55.7189 -0.0379143 0.00127411 0.00633621 -0.00258636 0.00361252 -0.00091362 -0.00118828 0.0413946 0.259155 0.328194 0.190586 0.171316 0.179369 -55.7189 0.0713768 0.138714 0.107338 0.110245 0.099308 0.0899086 0.0689812 0.0690575 0.00305748 0.00349045 0.00787735 0.00381851 0.0109596 0.00190353 -0.00110881 0.00798035 0.0077858 0.00646591 0.00345993 0.0106239 0.0022049 0.0281728 -55.7189 -0.00758362 -0.0123177 -0.0339622 0.00624847 -0.0151176 -0.0142574 -55.7189 -0.0538692 0.0132923 0.105397 0.205864 0.162878 0.17849 0.177155 0.170551 0.170975 -55.7189 0.148542 0.197025 -55.7189 0.107395 0.133598 0.111944 0.0913086 0.0704498 -55.7189 -0.00345421 -0.00533295 -55.7189 -55.7189 -55.7189 -55.7189 -55.7189 -55.7189 -55.7189 -55.7189
0.00175476 0.00226974 -55.7189 -0.00314713 0.00408554 -0.000297546 0.00250626 0.00641632 4.57764e-005 0.00346375 0.00134277 0.0019207 0.255567 0.11112 -55.7189 0.167 0.168026 0.129601 -55.7189 0.110348 0.177666 0.172749 0.180515 0.165976 0.0756264 0.0800438 -55.7189 -0.00069046 0.00416565 0.0012207 -0.0451107 0.00534439 -0.00274086 0.00186157 -0.0847816 -0.00203323 0.00173187 0.00389481 -0.0029583 0.00618935 0.00164986 0.00716019 0.0637652 0.21468 -55.7189 0.174587 0.180145 0.169449 -55.7189 0.0797195 0.118917 0.102173 0.0881767 -55.7189 0.0637703 0.0824699 0.0758133 0.00532913 0.00653458 0.0075798 0.000934601 0.00754674 0.00255712 0.00537872 0.0155296 -0.00886154 0.0120697 0.0108299 0.00347328 0.00450706 0.0472539 -55.7189 -0.0105877 -0.01054 -0.00306892 -0.00937653 -0.0109539 -0.0118866 -0.100304 -0.00463486 0.00917053 0.162671 -55.7189 0.17523 0.188835 0.188457 0.183092 0.179079 -55.7189 0.156871 0.282755 -55.7189 0.107447 0.114531 0.111843 0.0800819 0.0683517 -55.7189 -0.00922394 -55.7189 -55.7189 -55.7189 -55.7189 -55.7189 -55.7189 -55.7189 -55.7189 -55.7189
-0.000957489 0.00157356 -0.000677109 -0.00505447 0.00478745 -0.000617981 0.000614166 0.0120697 0.00116539 0.00329208 -0.00227737 -0.00525284 0.172737 0.104082 -55.7189 0.156445 0.158798 0.1465 0.0791817 0.111713 0.172873 0.180622 0.174126 0.169014 0.0779076 0.12661 -55.7189 0.00178146 0.00522232 -0.00364304 -0.0524483 0.000761032 -0.00463486 0.00252533 -0.0966778 0.0049057 -55.7189 -0.00405757 0.00238228 0.0100021 0.000614166 -0.00105286 0.042099 0.232923 -55.7189 0.16045 0.174675 0.169964 -55.7189 0.110329 0.121206 -55.7189 0.088623 0.0873127 0.0913067 0.0859108 -55.7189 0.00210953 0.00213242 0.00535774 0.00248718 -0.000793457 0.0126915 -0.0129128 0.0061264 0.0115166 0.00411224 0.00969887 0.00817108 0.00486374 0.0347176 -0.00170517 -0.00769424 -0.0319576 -0.00151825 -0.00610352 -0.00835419 -0.00137329 -0.104939 -0.0047671 0.00598526 0.142488 0.180683 0.178585 0.181583 0.179379 0.166466 0.184177 0.0885735 0.18481 -55.7189 -55.7189 0.073967 0.107437 0.0884171 0.076622 0.065815 -55.7189 -55.7189 -55.7189 -55.7189 -55.7189 -55.7189 -55.7189 -55.7189 -55.7189 -55.7189 -55.7189
0.00449753 0.0018158 0.00255585 -0.00376129 -0.000663757 0.00422668 0.000192642 0.00666046 0.0060997 0.00461197 0.012516 0.0028038 0.140998 0.133541 -55.7189 0.14526 0.157532 0.181221 0.0749092 0.137291 0.16412 -55.7189 0.171688 -55.7189 0.0850754 0.115517 -55.7189 0.00666046 0.00335693 -0.001791 -0.0464287 -0.00286102 -0.00414658 -55.7189 -0.0482101 0.00576591 0.00735664 -0.00338745 0.00281525 0.00432205 0.000915527 -0.00570679 0.0431614 0.236095 -55.7189 0.18148 0.180252 0.160133 0.125046 -55.7189 0.129519 0.0999947 0.096611 0.0975266 0.0862999 0.0701714 -55.7189 0.00212479 0.0105591 0.00523186 0.00637054 0.00836182 0.00511169 0.00823784 0.00283432 0.0033741 0.00128174 0.00182724 0.00899506 0.000644684 0.0591736 -0.00404739 -0.00746918 -0.0142174 -0.0067749 -0.0121193 -0.00672913 -0.0131512 -0.0399272 -0.00898361 0.0597725 0.152157 0.178539 0.176559 0.184544 0.185474 0.181107 0.171898 0.118389 0.200459 -55.7189 -55.7189 0.0915222 0.0953369 0.0970459 0.0960331 -55.7189 -55.7189 -55.7189 -55.7189 -55.7189 -55.7189 -55.7189 -55.7189 -55.7189 -55.7189 -55.7189 -0.00351334
-0.00528336 -0.00299454 0.00721741 -0.00167847 0.000450134 -0.00616455 -0.0022049 0.00266266 -0.00349426 -0.00179291 -0.00203323 -0.00226974 0.147579 0.129063 -55.7189 0.147522 0.160794 -55.7189 0.0788193 0.146473 0.166437 0.175591 0.178131 0.149399 -55.7189 0.10614 -55.7189 -0.00112915 -0.00116348 -55.7189 -0.029995 -0.00251389 -0.00474358 -55.7189 -0.0447617 -0.0455036 -0.00069046 -0.00428009 -0.00223923 0.00682068 0.00082016 -0.000448227 0.0376434 0.249942 -55.7189 0.190697 0.183865 0.188705 0.145267 0.0822296 0.130882 0.11409 0.0742245 0.106537 0.102795 0.0696907 0.0139961 0.00529099 0.00537109 0.00405121 0.00704193 -0.000396729 0.00788498 0.0102425 0.0071373 0.00326538 0.0019455 0.00392342 0.0111446 0.0109921 0.0395908 0.0287018 -0.0130768 -0.0111542 -0.0189648 -0.00712204 -0.0104065 -0.00683975 -0.0373039 -0.0130653 0.0451679 0.184933 0.16869 0.173126 0.189129 0.173531 0.185478 0.165016 0.138786 0.16428 0.256281 0.103092 0.105776 0.12715 0.102612 0.0972977 -55.7189 -55.7189 -55.7189 -55.7189 -55.7189 -55.7189 -55.7189 -55.7189 -55.7189 -55.7189 0.00174713 0.00461197
0.000160217 -0.00747299 -0.0085144 -0.00437927 -0.00128365 0.00300217 0.0083847 0.0105133 0.000358582 0.00642014 0.00677872 -0.00439453 0.115298 0.131535 -55.7189 0.131817 0.15258 -55.7189 0.0751534 0.135311 0.150995 0.165394 0.159147 0.17831 -55.7189 0.0805397 0.000770569 0.00857162 0.00192642 -55.7189 -0.0109062 -0.000984192 -0.00365829 -0.027813 -55.7189 -0.0734787 0.0019989 -0.00301361 0.000984192 0.00507927 -0.00427818 -0.00202942 0.0313129 0.17244 -55.7189 0.208416 0.168736 0.184685 0.153034 0.0793457 0.186466 0.0917702 0.0671272 0.100109 0.0853252 0.0619202 0.0203857 0.00656128 0.00663757 -0.00102806 0.00688171 0.00512505 0.00181198 0.00302887 0.0108147 0.00359344 0.00670815 0.00471878 -0.00524902 0.00785828 0.0492172 -55.7189 -0.0112267 -0.0143909 -0.0419655 -0.000879288 -0.00943565 -0.0228996 -0.00912476 -0.0115566 0.0218722 0.162529 0.171764 0.190342 0.174053 0.17168 0.170647 0.168571 0.153606 0.113876 0.232193 0.124619 0.0928078 0.0881195 0.0973816 0.0651798 -55.7189 -55.7189 -55.7189 -55.7189 -55.7189 -55.7189 -55.7189 -55.7189 0.000232697 -0.00111771 0.00239563 -0.00244141
0.0038681 -0.00398254 0.00135994 -0.00389862 0.00177765 -0.000823975 -0.00298691 -0.00226593 0.000686646 -0.00204468 0.00097847 -0.00814819 0.114623 0.129885 0.166988 0.147263 0.175308 -55.7189 0.0973574 -55.7189 0.145652 0.169977 0.155663 0.180599 -55.7189 0.0781326 -0.0163155 -0.000812531 -0.0011673 -0.0143471 0.00657272 0.00220871 0.00380325 -0.0178223 -0.0143166 -0.00315475 -0.0464249 0.000497818 0.00496292 0.0039444 -0.0016861 -0.00593185 0.024292 0.163512 0.226658 -55.7189 0.173347 0.177296 0.157928 0.12533 0.177444 0.0766678 0.0732689 0.0737247 0.110119 0.0667877 0.0611038 0.0076046 0.00727463 0.0120392 0.00849533 0.00729752 0.00997543 0.000144958 0.00634003 0.00377909 0.00909424 0.00952911 -0.00202942 0.0176086 0.0522861 -55.7189 -0.00440788 -0.00836945 -0.0281143 -0.0121384 -0.0141373 -0.0134373 -0.02911 -0.00589752 0.0400937 0.14871 0.18243 0.177275 0.181936 0.179092 0.172344 0.162163 -55.7189 0.132788 0.238972 0.108524 -55.7189 0.0652669 0.0917358 0.100269 -55.7189 -55.7189 -0.00331497 -55.7189 -55.7189 -0.00687408 -0.00265121 -0.000762939 -0.00724411 -0.00470161 0.00267982 0.000476837
-0.00392151 0.000547409 0.00466537 -0.00164413 -0.000923157 0.00143051 0.00621414 0.00303078 -0.000944138 -0.00750351 0.00360107 -55.7189 0.0233841 0.158244 -55.7189 0.139256 0.166492 -55.7189 0.122972 0.121046 0.165623 0.1633 0.151405 0.172997 -55.7189 0.0715828 -0.0114365 0.00228882 -0.00571823 0.00307465 0.00732803 0.00266266 -0.0113487 -0.0101852 -0.0465775 -0.00757599 -0.00243568 -0.0017395 0.00801086 0.000850677 -0.00062561 0.00122643 0.0305347 0.184139 0.266594 -55.7189 0.164764 0.163271 0.155693 0.0781555 0.156693 0.0988846 0.0853424 0.0609169 0.101315 0.0844193 0.0572586 0.00331497 0.00851822 0.0118446 0.0046196 0.00838089 0.0138092 0.00393105 0.0069224 0.00759506 0.0101051 0.00766373 0.00351906 0.00522041 0.0439634 -55.7189 -0.0103989 -0.00691223 -0.00162888 -0.01238 -0.00832367 -0.00753403 -55.7189 -0.0499172 0.0251884 0.143948 0.182871 0.168514 0.168335 0.174042 0.167025 0.156733 -55.7189 0.163414 0.231541 0.150909 0.0988693 0.0739632 0.113104 0.079525 0.0703278 0.0658646 0.000297546 -0.00737762 0.00350571 -0.003479 -0.0051384 0.00138283 -0.00447464 0.00128174 -0.000291824 -0.00428772
-55.7189 -0.00463867 -0.00947189 -0.00230026 0.00019455 -0.000115712 0.00336838 -0.00198364 -55.7189 -0.00858307 -0.0024395 0.000762939 0.209541 0.116663 -55.7189 0.131514 0.170376 0.121845 -55.7189 0.106226 0.172874 0.162853 0.159618 0.166763 0.0791664 -55.7189 0.0159073 0.0062561 0.00130844 0.0185661 0.00579834 0.00528717 -0.00117874 -0.000574112 -0.0764313 -0.00447464 0.0245018 -0.0044136 -0.00510788 0.00491714 0.00164413 0.00265884 0.0498486 0.147722 0.288799 -55.7189 0.165504 0.163536 0.165417 0.0746365 0.144123 0.0834541 0.098278 0.101635 0.0832939 0.0655899 0.0727596 0.0055542 0.0170441 0.00562668 0.00939751 0.00518799 0.00615819 0.0109787 -0.001194 -0.00176239 0.00218582 0.00827026 0.00648117 -0.000278473 0.0387039 -55.7189 0.000713348 -0.0119311 -0.00539017 -0.00160599 -0.010994 -0.00249863 -0.0871811 -0.00500107 0.0165119 0.104633 0.1978 0.164429 0.182941 0.167742 0.171955 0.162991 -55.7189 0.101512 0.214169 0.185623 -55.7189 -55.7189 -55.7189 0.134716 -55.7189 0.0626221 0.00136185 -0.00313187 -0.00223541 -0.00037384 0.00498581 -0.00862885 0.00365829 0.00417328 -0.00251007 -0.0035038
0.00177383 -0.00321579 -0.00855637 0.00193977 -0.00495148 -0.000389099 0.00351334 0.00172043 -0.00412369 0.00510025 -0.00151253 -0.0101662 0.198372 0.107948 0.126083 0.122147 0.155989 0.12011 -55.7189 0.100965 0.116732 0.11755 0.104743 0.12657 0.0784492 0.0976219 -55.7189 0.00551987 0.00694275 0.0107841 0.0065155 -0.00326729 0.00359344 0.00709152 -0.0992889 0.00429535 0.0075798 0.00436211 0.00498708 0.00455666 -0.000232697 0.0082016 0.0473042 0.192533 0.214878 0.117847 0.134823 0.153751 0.114307 0.0780144 0.100393 0.0726585 0.0774078 0.0788307 0.0796566 0.0786247 0.065815 0.00485992 0.00509644 0.00182152 0.00409317 0.0122223 0.00145531 0.00824738 0.00615692 0.00131607 0.00302505 0.0033493 0.0012207 0.00135422 0.0320778 -55.7189 -0.00914129 -0.010601 0.000324249 -0.0141411 -0.00968933 -0.0148354 -0.0925751 -0.0118294 0.00940895 0.0961866 0.168755 0.157862 0.153431 0.116184 0.128334 0.122192 0.0920868 0.12918 0.149733 0.154675 0.170666 0.209517 0.139956 0.144737 0.0724068 -55.7189 -0.00258446 -0.00369263 -0.0044632 -0.00287247 -0.00222778 0.00714493 -0.0140038 0.0007267 -0.0032959 -0.00155258
-0.00304031 -0.00468063 -0.00520325 0.00125885 -0.00469589 -0.00087738 0.00896072 -0.0021553 0.00103378 -0.0017643 -0.00642014 -0.0055275 -0.00352859 0.0148773 0.0601044 0.0731773 0.0551414 0.0409603 0.0478153 -0.00400162 0.0359001 0.0563259 0.0942955 0.0477791 0.0412273 0.0463867 0.00136185 0.00992203 -0.00503159 -0.00222397 0.000841141 -0.00270844 0.0020752 0.0036087 -0.0623716 -55.7189 0.00194041 -0.00226974 0.00456238 -0.00379944 0.00164032 -0.000209808 0.038887 0.0432987 0.0483189 0.0394802 0.0501614 0.0508194 0.073391 0.0791016 0.0426464 0.0438976 0.0515308 0.0470295 0.0466309 0.0704842 -55.7189 0.00317955 0.00336075 0.00590515 0.00585938 0.00031662 0.00705719 0.00768471 -0.00200844 0.00162888 0.00733948 0.00894928 0.0025177 0.0024662 0.0312691 -0.00101471 -0.00679779 -0.00806427 -0.00848389 -0.00540924 -0.0101662 -0.00821495 -0.110016 -0.0116367 -0.00816727 0.035099 0.0704784 0.030405 0.0356808 0.0421906 0.0259488 0.0500793 0.0576897 0.0337276 0.0398655 0.0367107 0.0377274 0.0203082 0.0309677 0.051445 0.0470797 -0.00896072 -0.00354385 -0.00549698 -0.00614166 -0.000404358 -0.0102978 0.00665092 -3.05176e-005 -0.00344849 -0.0023613 0.00324631
-0.00467682 -0.00505257 -0.0100212 -0.00849152 -0.0101395 -0.00357819 -0.00402832 -0.0030899 -0.00760269 0.000450134 -0.00212097 -0.0026474 -0.00160599 0.00592041 -0.00518227 -0.00302315 -0.00336456 0.00112915 0.00138474 0.00692368 -0.00310326 -0.00309181 0.00145912 0.0029335 0.00318909 -0.00484467 -0.00168228 0.00115967 0.00325966 -0.00397491 0.0129395 0.00401115 -55.7189 -0.00814056 -0.0315628 0.00617027 0.00405502 0.00809097 0.00529099 0.00559235 -0.0019989 0.00210571 0.00336075 0.00218964 -0.00156403 -0.00414658 0.00223923 -0.000231425 0.00597 0.00423431 0.00152588 0.000881195 0.0141487 0.000968933 0.00139427 0.00391388 0.000413895 0.0113869 0.00586128 0.0101547 0.0105782 0.00817108 0.00237083 0.00616074 0.000869751 0.00148773 -0.00147247 0.0111847 0.00223033 -0.000835419 0.045929 -0.00645828 -0.00809097 -0.00953102 -0.00500298 -0.0108814 -0.00847244 -0.00160217 -0.0701027 -0.0279026 -0.00729752 -0.00673294 -0.00454903 -0.0132675 -0.00862885 -0.0123367 -0.0125084 -0.00157166 -0.0118523 -0.010685 -0.00842667 -0.0156937 -0.0148964 -0.00437546 -0.00402832 -0.00438309 -0.00481415 -0.00594711 0.000816345 -0.00603104 0.00198555 -0.0137901 -0.00395584 0.00357819 -0.0001297 -0.00690842 -0.00500488 -0.00214958
-0.00886536 -0.00119019 -0.00476456 -0.00166702 8.7738e-005 -0.00458145 -0.00596046 -0.00482178 -0.00394058 0.00352478 -0.00481796 -0.0122299 -0.00375366 -0.00899506 -0.235367 -8.7738e-005 -0.00284958 -0.00287628 -0.00165558 -0.000267029 -0.0031395 0.0057869 -0.00128937 0.00459671 0.00247955 -0.0449505 -0.0490513 -0.0373249 -0.0497551 -0.0111618 -0.00569725 -0.0396042 -0.0487804 -0.0995941 -0.101864 -0.0877609 -0.0387917 0.0105591 -0.0528317 -0.0447102 -0.0563278 -0.0970039 -0.0687752 -0.0466461 0.0117035 -0.000160217 -0.00019455 0.00266647 0.00317764 0.0138512 -0.00767899 -0.000770569 0.00575256 -0.000375748 -0.00301361 0.00787735 -0.00448608 -0.000156403 -0.0048008 0.00674248 0.0043869 0.00219345 0.0028038 0.00901794 -0.00315857 -0.00173187 0.00671768 0.00439326 0.00938034 0.00278473 0.0462151 -0.0109062 -0.00523376 -0.0131874 -0.0082283 -0.0140305 -0.00151062 -0.013752 -0.0542946 -0.022934 -0.0115929 -0.0920258 -0.0706774 -0.0143471 -0.00636292 -0.0106532 -0.0141983 -0.0120087 -0.0158691 -0.00432587 -0.00820541 -0.0102825 -0.00671005 -0.00897789 -0.0122681 -0.00142288 -0.0188637 -0.00094223 -0.00345612 -0.0021534 0.000324249 -0.0057373 -0.00174713 0.00216103 0.00160789 0.00133705 -0.00177383 -0.00209427
-0.897915 -0.0117989 -0.00463867 0.00140762 -0.00700569 -0.000263214 0.000461578 -0.011631 -0.0042305 0.00382233 -0.00710678 -0.00821304 -0.00250626 -0.0620537 -0.378447 -0.284177 -0.329285 -0.315434 -0.277536 -0.27192 -0.280334 -0.301404 -0.27349 -0.331701 -0.296407 -0.380647 -0.307033 -0.233912 -0.285069 -0.340463 -0.525608 -0.343067 -0.346863 -0.583248 -0.208809 -0.356988 -0.358189 -0.348729 -0.357299 -0.314906 -0.379609 -0.264999 -0.344673 -0.385715 -0.234733 -0.369411 -0.281938 -0.303862 -0.273052 -0.321542 -0.301774 -0.276814 -0.323233 -0.274754 -0.285497 -0.257502 0.00810432 0.00323486 -0.00088501 0.00192261 0.00767517 0.00894165 0.00169754 0.00198746 0.000377655 -5.53131e-005 0.00551987 0.00139618 0.00152969 0.00582886 0.0305138 0.0153923 -0.00530243 -0.0160446 -0.00794983 -0.0161285 -0.0113144 -0.0116673 1.26433 -0.387098 -0.245489 -0.45185 -0.289029 -0.300375 0.0178735 -0.254471 -0.255077 -0.386262 -0.354659 -0.286541 -0.305357 -0.233675 -0.300425 -0.424462 -0.365252 -0.380925 -0.277251 -0.210799 -0.269066 -0.289923 0.00156403 -0.00292969 -0.00139618 -0.0041097 -0.00642395 0.00251007 -0.00167465 -0.00279999
-0.940568 -0.0033493 0.000162125 0.0030365 0.000190735 0.00437546 0.00687408 -0.000850677 0.000240326 0.00689697 -0.00738144 -0.0162582 -55.7189 -55.7189 -0.578163 -0.572304 -0.564682 -0.57494 -0.573181 -0.5676 -0.577412 -0.580379 -0.574947 -0.577419 -0.5784 -0.573784 -0.581982 -0.314885 -0.388579 -0.384226 -0.200012 -0.285744 -0.291941 -0.29726 -0.292419 -0.379056 -0.290369 -0.295837 -0.291519 -0.387071 -0.57877 -0.571587 -0.571327 -0.574871 -0.57196 -0.585457 -0.587223 -0.576599 -0.574711 -0.582191 -0.582497 -0.576624 -0.579655 -0.585339 -0.577255 -0.247606 -0.000687917 0.000953674 -0.000621796 0.0100822 0.00635529 0.00153351 0.000396729 0.0103588 0.00670624 0.00381851 0.00180817 0.00841141 0.00499725 0.00307083 0.0290546 0.0602226 -0.00640488 -0.0110664 -0.0120544 -0.0148144 -0.0129623 -55.7189 -55.7189 -0.57955 -0.578529 -0.574539 -0.579498 -0.57756 -0.580109 -0.576664 -0.569386 -0.579559 -0.580261 -0.578651 -0.57785 -0.573875 -0.31782 -0.384446 -0.297377 -0.205935 -0.567871 -0.580204 -0.569477 -0.268239 -0.00366592 -0.0038592 -0.00243759 -0.0074501 -0.012886 -0.0076561 -0.00124359 0.0013593
-0.904065 0.00100517 0.00282288 0.010437 0.00641251 0.00527573 0.00939178 0.00537872 -0.00268364 0.00623322 -55.7189 -55.7189 -55.7189 -0.57518 -0.574478 -0.568573 -0.489418 -55.7189 -0.544422 -0.555054 -0.571602 -0.501886 -55.7189 -55.7189 -0.515984 -0.551346 -0.575535 -0.52792 -0.519741 -55.7189 -0.558216 -0.571533 -0.584713 -0.580063 -0.5427 -0.499043 -0.491581 -0.562901 -0.571896 -0.575294 -0.576088 -0.511112 -0.496387 -0.557777 -0.568497 -0.572727 -0.550781 -0.520393 -0.4795 -0.53862 -0.558693 -0.584324 -0.579403 -0.549408 -0.574829 -0.242579 -2.28882e-005 0.00457382 0.00106049 -0.00104523 0.00663376 -0.00102234 0.004673 0.00161362 0.00237846 0.00776672 0.00233078 0.00192261 -0.000904083 -0.00221252 0.0471096 -55.7189 -0.0112534 -0.0147648 -0.0121479 -55.7189 -55.7189 -55.7189 -55.7189 -0.583908 -0.505831 -55.7189 -0.522732 -0.540661 -0.579433 -55.7189 -55.7189 -55.7189 -55.7189 -0.541924 -0.57893 -0.567253 -0.505333 -0.532429 -0.554989 -0.569695 -0.569221 -0.571316 -0.565937 -0.252252 -0.00268555 -0.0088253 0.00588608 0.00637436 -0.00688171 -0.00244522 0.00384712 -0.000377655
-0.786901 0.000724792 0.0135078 0.000770569 0.0107231 0.0017128 0.00452423 -0.00461578 -55.7189 -55.7189 -55.7189 -55.7189 -55.7189 -55.7189 -0.564907 -0.464244 -55.7189 -0.454506 -0.436264 -0.46096 -0.474728 -0.45293 -0.418672 -55.7189 -55.7189 -0.499966 -0.522932 -0.529449 -0.518837 -55.7189 -0.518108 -55.7189 -0.497593 -0.510906 -0.514256 -0.507034 -55.7189 -55.7189 -55.7189 -0.501312 -0.51321 -0.497541 -55.7189 -55.7189 -0.506714 -0.510782 -0.519306 -0.50153 -0.450022 -0.429943 -0.423195 -0.482006 -0.511543 -0.509323 -0.57513 -0.267042 -0.0021553 0.00502777 0.00152206 -0.000347137 0.000638962 -0.00352859 0.00159836 0.00724792 0.00240517 0.000946045 0.00124931 0.00744629 0.00149155 -0.000793457 0.0446339 -55.7189 -0.00979042 -0.0153847 -0.00932312 -55.7189 -55.7189 -55.7189 -55.7189 -0.589798 -0.515604 -0.474972 -0.463612 -0.465591 -0.412842 -0.41539 -0.385761 -0.407442 -0.507244 -0.491692 -0.449188 -55.7189 -55.7189 -0.502045 -0.51046 -0.51133 -0.511784 -0.537064 -0.56731 -0.264838 -0.00328064 -0.00168228 0.00357819 0.00450516 -0.00464249 0.00351715 0.00142288 0.00173187
-0.825455 -0.00056839 0.00445557 -0.000522614 -0.000522614 0.00485229 -0.00577545 0.00257874 -55.7189 -55.7189 -55.7189 -55.7189 -55.7189 -55.7189 -0.565174 -0.441862 -55.7189 -0.453007 -0.454159 -0.503128 -0.424191 -0.428524 -0.350895 -55.7189 -55.7189 -0.51687 -0.499557 -0.482273 -0.516548 -55.7189 -0.495449 -0.51181 -0.507874 -0.501999 -0.294086 -55.7189 -0.514523 -0.536743 -55.7189 -0.484982 -55.7189 -0.515255 -55.7189 -0.516768 -0.519196 -0.536484 -0.501068 -0.478754 -0.443867 -0.437344 -0.440071 -0.489357 -0.428768 -55.7189 -0.573101 -0.286933 0.00194359 -0.00232506 -0.00192833 0.00252533 0.00923157 0.000270844 0.00683784 0.000659943 -0.00617218 0.00855255 0.0125618 0.000202179 0.00291824 0.000682831 0.0257886 -55.7189 -0.0122261 -0.00574493 -55.7189 -55.7189 -55.7189 -55.7189 -55.7189 -0.593705 -0.528666 -0.499729 -0.504078 -55.7189 -0.407547 -0.403194 -0.426983 -0.486542 -0.503838 -0.410513 -55.7189 -0.46776 -55.7189 -0.49366 -0.501051 -0.526123 -55.7189 -0.536636 -0.5749 -0.318902 -0.00463994 -0.00573158 0.00288391 -0.00206375 0.00740814 -0.00287247 -0.00309499 0.00238991
-1.14718 0.00130463 -0.0021286 0.00111198 -0.00442505 0.00595856 0.00434113 0.00721359 0.00362778 -55.7189 -55.7189 -55.7189 -55.7189 -55.7189 -0.576546 -0.542929 -0.427982 -0.493216 -0.492708 -0.4398 -0.413944 -55.7189 -0.362057 -0.470881 -0.47637 -0.257372 -0.500271 -0.256294 -0.496143 -0.498344 -0.517784 -55.7189 -0.256954 -0.249523 -0.102669 -0.51638 -0.0137405 -0.465665 -0.00273514 -0.252539 -0.524483 -55.7189 -0.503288 -0.522594 -0.518467 -0.484306 -0.517788 -0.470478 -0.457249 -0.482351 -0.490822 -0.406197 -0.422722 -55.7189 -0.587164 -0.265631 0.000453949 0.00170898 -0.0043869 0.0080986 0.0148087 0.00562286 0.0075798 -0.000789642 0.00773239 0.00959015 -0.000343323 0.00462341 0.00942802 0.00119019 0.0449295 -55.7189 -0.0133324 -0.0151711 -55.7189 -55.7189 -55.7189 -55.7189 -0.579491 -0.57769 -0.40771 -0.331715 -55.7189 -55.7189 -0.422508 -0.476582 -0.490841 -0.424061 -0.268266 -0.393259 -55.7189 -0.506927 -55.7189 -55.7189 -0.526718 -55.7189 -55.7189 -0.530237 -0.570263 -0.225425 -0.00105095 -0.00741959 -0.00292206 -0.0033989 -0.00550461 -0.000137329 -3.8147e-006 0.00386429
-1.24518 0.00610542 0.00493431 -3.8147e-006 -0.00255966 0.00589752 0.00365448 0.00973892 0.0013504 -55.7189 -55.7189 -55.7189 -55.7189 -55.7189 -0.580454 -0.522994 -0.51236 -0.464188 -0.456676 -0.455235 -0.444965 -0.470867 -0.487309 -0.490784 -0.506538 -0.240074 -55.7189 -0.535179 -0.352453 -0.244246 -0.260813 -0.523987 -55.7189 -0.331764 -55.7189 -0.218391 -0.513824 -0.00395203 -0.0113335 -0.513676 -0.515844 -0.50771 -0.511356 -0.492081 -0.491138 -0.516769 -0.515038 -0.483686 -0.528816 -0.50341 -0.440052 -0.43396 -0.430931 -0.561058 -0.575802 -0.288865 -0.00141144 0.00947952 0.00419235 0.00588036 0.00578435 0.0148926 0.0118408 0.00914383 -0.00128174 0.00670624 0.00253868 0.00358009 0.0065155 0.00346756 0.0305347 -0.0138588 -0.015604 -0.00683975 -55.7189 -55.7189 -55.7189 -55.7189 -55.7189 -0.586494 -0.354121 -0.240242 -55.7189 -0.522694 -0.516766 -0.490765 -0.403444 -0.403239 -0.230249 -0.270768 -0.509384 -0.350238 -0.241644 -0.263208 -55.7189 -0.507874 -0.526215 -0.531967 -0.569237 -0.269819 -0.0120239 -0.00241852 -0.00304031 -0.0150871 -0.00287247 -0.000432968 -0.000385284 0.00392914
-0.847677 0.00260162 0.0136147 -0.00387955 -0.00562668 -0.00790024 0.00121307 0.00570107 0.0141468 -55.7189 -55.7189 -55.7189 -55.7189 -55.7189 -0.570517 -0.523815 -0.522369 -55.7189 -0.482662 -0.497231 -0.50728 -0.515491 -0.527313 -0.479061 -0.468273 -0.250259 -0.526279 -0.175138 -0.519569 -0.254356 -0.512356 -0.00103378 -0.514576 -0.517147 -0.515692 -0.257308 -0.483955 0.00201035 -55.7189 -0.515079 -0.526966 -0.52232 -0.505943 -0.50658 -0.496967 -0.518383 -0.510983 -0.515282 -0.497974 -0.480228 -0.486301 -0.515461 -0.51228 -55.7189 -0.574528 -0.287461 -0.00450516 0.00460434 -0.00221062 -0.000370026 0.00056839 0.0116196 0.0127144 0.0119514 0.00385475 0.00423241 0.00617218 -0.000862122 0.0120926 -0.0016613 0.0618935 -0.00814438 -0.0120735 -0.01194 -55.7189 -55.7189 -55.7189 -55.7189 -55.7189 -0.578152 -0.318182 -0.49646 -0.513561 -0.514172 -0.490765 -0.364929 -55.7189 -55.7189 -0.343746 -0.180701 -0.251299 -0.494417 -0.172461 -55.7189 -0.513725 -0.511475 -0.502159 -0.525188 -0.571281 -0.284618 0.00532532 -0.00205803 -0.0019989 -0.00930786 -8.7738e-005 -0.00751114 -0.00366211 -0.00801468
-1.05683 0.00206375 -0.000400543 0.00728226 -0.00868607 0.0109673 0.00221634 -0.0028801 -0.00210571 -55.7189 -55.7189 -55.7189 -55.7189 -55.7189 -0.571835 -0.419144 -55.7189 -55.7189 -55.7189 -55.7189 -55.7189 -55.7189 -0.00606918 -0.00226212 -55.7189 -55.7189 -55.7189 -0.003479 -55.7189 -55.7189 -55.7189 -0.00788498 -0.245672 -0.0178795 -55.7189 -0.115799 -55.7189 -55.7189 -55.7189 -55.7189 -55.7189 -55.7189 0.00297165 -55.7189 -55.7189 -55.7189 -55.7189 -55.7189 -55.7189 -55.7189 -55.7189 -55.7189 -55.7189 -0.563995 -0.584347 -0.25713 0.00260544 -0.000172933 0.0107689 0.00978088 0.0033989 0.0059967 0.00481987 0.00456047 0.0144997 0.00932693 0.00151443 0.00655746 0.00214958 0.00430679 0.0495949 0.0141449 -0.00845337 -0.00730515 -0.0183525 -55.7189 -55.7189 -55.7189 -55.7189 -0.553436 -0.454877 -0.502529 -55.7189 -55.7189 -55.7189 -55.7189 -0.518528 -0.520435 0.00196457 -55.7189 -55.7189 -0.00248337 -0.267714 -0.508438 -55.7189 -55.7189 -55.7189 -0.54047 -0.376873 -0.242426 -0.00740623 0.00302887 0.00224686 -0.0033474 0.00289917 -0.00318336 -0.0007267 0.000404358
-0.835287 -0.00650787 0.00369644 -0.00528336 -0.00301743 0.00400352 -0.00114441 -0.00239563 0.0050621 -55.7189 -55.7189 -55.7189 -55.7189 -55.7189 -55.7189 -55.7189 -55.7189 -55.7189 -55.7189 -55.7189 -55.7189 -55.7189 -55.7189 -55.7189 -55.7189 -55.7189 -55.7189 -0.0268764 -0.0092659 -55.7189 -55.7189 -55.7189 -55.7189 -0.0130539 -55.7189 -0.102131 -55.7189 -55.7189 -55.7189 -55.7189 -55.7189 -0.00373459 -55.7189 -55.7189 -55.7189 -55.7189 -55.7189 0.0021553 -55.7189 -55.7189 -55.7189 -55.7189 -55.7189 -55.7189 0.00111389 0.00327492 0.00125694 0.00030899 0.00175095 0.00749588 -0.00667 0.00223351 0.00777817 -0.000846863 0.0043335 0.0087738 0.0061779 0.000166575 0.00431442 -0.00525284 0.0262527 0.0584869 -0.00460434 -0.00150871 -0.00693703 -55.7189 -55.7189 -55.7189 -55.7189 -55.7189 -55.7189 -0.0323944 -0.00224686 -0.00413895 -0.00609207 -55.7189 -55.7189 -55.7189 -55.7189 -55.7189 -0.0110741 -0.00906944 -55.7189 -55.7189 -55.7189 -55.7189 -55.7189 -0.0379677 -0.0164833 -0.00222397 -0.0142097 -0.0140305 -0.0105057 -0.00379054 0.00160789 -0.00752258 0.0032196 0.00592041
-1.22872 -0.0103874 0.00396729 0.00215785 0.00889587 -55.7189 -0.00616074 0.00088501 6.29425e-005 -55.7189 -55.7189 -55.7189 0.000190735 -0.0018425 0.00308228 -0.00212288 -55.7189 0.00168228 -0.000591278 0.00498581 0.000663757 -0.00620651 0.000785828 0.00577927 0.00596237 0.00564957 -0.00815201 -55.7189 -0.0219746 4.19617e-005 -0.00504303 -0.000709534 0.000572205 -0.00416183 -55.7189 -0.0518932 -0.00466537 -0.00771713 -0.00577545 -0.00788116 -0.000644684 -0.00482178 0.00296402 -0.00154495 -0.00325012 -0.00087738 -0.00227356 0.000881195 0.00562668 -55.7189 -55.7189 -55.7189 -0.00198364 0.00125694 0.000733693 0.00839996 0.00276566 0.00377274 0.0029335 0.00308228 0.0094986 0.00439453 0.00904083 -0.00373077 0.00220871 0.0052096 -0.00471497 0.0151215 0.000442505 -0.00437927 0.0641022 -55.7189 -0.00882339 -0.00180054 0.000328064 -55.7189 -55.7189 -0.100107 -0.0146675 -0.00408173 -0.00867462 -0.00436783 -0.0106754 -0.011673 -0.00656509 0.00245667 0.00308609 -0.00731277 -0.00888824 -0.00819778 0.000667572 -0.00655746 -0.00473785 -55.7189 -55.7189 -55.7189 -0.00284004 0.000640869 -0.00560379 -0.000766754 0.000221252 -0.00821304 -0.00327301 0.00117874 0.00818253 0.00471497 -0.00440979 0.00376511
-0.651501 0.00175476 0.00132751 -0.000400543 0.000663757 -0.000774384 -0.000675201 0.00144386 -0.0107307 -0.00683594 0.00144958 0.00143051 -0.00238037 -55.7189 -0.00136375 0.00226593 0.0020752 0.0104103 0.000671387 0.0129929 0 0.0197601 0.0109062 -0.00796127 -0.00125504 0.00214005 -0.00923538 -0.00391388 -0.00462723 -0.00634003 -0.00533295 0.00683212 -0.0074234 0.00413513 -0.0786819 0.0063858 -0.004776 -0.00530243 0.00166512 -0.00129318 0.000738144 -0.000492096 -0.000492096 -0.000328064 -0.00240707 -0.0039711 -0.00143051 0.0157776 0.00791931 0.00398254 0.00334549 0.00318909 0.0122204 0.0143471 -0.000995636 0.00256348 0.0030098 0.00179482 0.0055275 0.0132675 0.00860214 -0.00162125 0.00658417 0.00624275 0.00626628 0.0171585 0.00952148 0.012394 0.00742722 0.000722885 0.0410779 -55.7189 -0.00228882 -0.00705719 -0.0110626 -0.0577374 -0.00582886 -0.0163231 -0.052784 -0.0201187 0.000267029 -0.00646591 0.00718307 0.018074 -0.00827026 -0.00650406 -0.0039444 -0.00902176 -0.0165253 -0.00012207 -0.00654602 -0.00962067 -0.0146942 -0.00473022 -55.7189 0.00527191 0.00402832 -0.00284195 -0.00457001 -0.00409317 -0.00786591 -0.00314713 -0.00553513 -0.00311279 -0.00375748 -0.00707626 -0.0038414 -8.26518e-005
0.000938416 0.00127029 0.00479889 0.00579834 -0.00321198 -0.0037899 0.00411224 0.0109711 -0.00309372 0.00592041 -0.00119019 0.000770569 0.0207272 0.0787811 0.0746574 0.124123 0.114677 0.103329 0.0988274 -55.7189 0.0655251 0.0768967 -55.7189 0.0699635 0.0769081 0.0740471 -55.7189 -0.000904083 -0.0401421 0.00971222 -0.00130463 -0.00107956 0.000377655 -0.00271606 -55.7189 -0.0595042 0.0019989 0.000627518 -0.00831985 -0.0043602 -0.0014534 -0.00671768 0.044384 0.0817566 0.0884361 0.084507 0.12236 0.118816 0.12495 0.0734024 0.0722809 0.0722923 0.0708046 0.0808792 0.0738487 0.0724411 0.0797844 0.00929642 0.00679398 0.00580597 0.000396729 0.00826263 0.00460243 0.00196457 0.000736237 -0.00290298 0.000507355 0.00596619 0.00810051 0.00289917 0.0567156 -55.7189 -0.00119781 -0.00038147 -55.7189 -0.0743256 -0.0153618 -0.0113564 -0.0796852 -0.0515347 0.0128403 0.0988731 -55.7189 -55.7189 -55.7189 -55.7189 0.0970573 0.07658 0.0730629 -55.7189 -55.7189 0.0692101 0.0726128 0.0842896 0.0652695 0.0826073 0.0703201 0.0661926 -0.00154877 -0.00196266 -0.000629425 -0.0065155 -0.00149536 -0.00069046 0.00102997 0.00100136 0.0010376 -0.00357056
-0.00246811 0.00455093 -0.000282288 -0.00262451 0.00189972 -0.00858688 0.00104523 0.00375366 -0.000228882 -0.00135422 0.000854492 0.00197601 0.0405216 0.109211 0.147049 0.207062 -55.7189 0.16177 0.0829163 0.0689926 -55.7189 0.151184 0.134254 0.153839 0.134289 0.0643654 -55.7189 -0.00597763 -0.0633698 -0.000694275 -0.00258446 0.00172424 0.00465012 0.000167847 -0.0914898 -0.0763054 0.000516891 -0.0139656 0.00622177 -0.00255203 -0.00410461 -0.000869751 0.0298716 0.122627 0.171768 0.16329 0.168819 0.160381 -55.7189 0.0877037 0.0960484 0.092905 -55.7189 0.10322 0.0981255 -55.7189 0.0716724 0.00265503 -0.00243378 0.000938416 0.00600624 0.0110035 0.00772285 0.00547791 0.00993729 0.0107956 0.00624466 0.00904083 0.0042572 -3.8147e-005 0.0429821 -0.00482178 -0.0095005 -0.00704702 -55.7189 -0.0420532 -0.00135422 -0.0136108 -0.102009 -0.0067749 0.00869179 0.112509 0.247604 0.275505 0.217106 -55.7189 0.31411 -55.7189 0.274178 -55.7189 -55.7189 0.0798664 0.124962 0.150449 0.154652 0.150356 0.11993 -55.7189 -0.00111008 -0.00767899 -0.00488472 0.00137329 -0.00617409 -0.00316238 0.00389099 -0.000400543 0.0050106 -0.0102272
-0.00143051 -0.0028801 -0.00689316 -0.00263596 0.00124359 -0.000190735 -0.00382233 0.00385284 -0.00606155 -0.000205994 0.00592995 0.000659943 0.0560207 0.149526 0.155128 0.174355 0.12392 0.12923 0.102793 0.121307 0.167381 0.147526 0.143036 0.148552 0.146622 0.0695419 -55.7189 0.00181961 -0.00792885 -0.0038166 -0.0030632 -0.00178528 -0.00063324 -0.00252533 -0.0889893 -0.0224628 0.00172424 0.00270462 -0.00511932 -0.0038147 -0.00144386 -0.00094986 0.0527407 0.127012 0.165226 0.174999 0.160404 0.162189 -55.7189 0.106327 0.104788 -55.7189 0.103844 0.110207 0.0968056 0.0734558 -55.7189 0.0113945 0.000354767 0.0125084 0.0041097 0.00345612 0.00252533 0.0025444 0.00852776 0.00969315 0.00449371 0.010704 0.0138054 0.00854492 0.0345116 -0.00436401 0.00205994 -0.00959396 -0.040596 0.00148392 -0.00676727 -0.0110931 -55.7189 -0.0426267 0.120214 0.268547 0.329258 -55.7189 0.283749 0.314841 0.308041 0.357613 0.275963 -55.7189 0.0786018 0.09058 0.137844 0.14178 0.124413 0.133083 0.118221 -55.7189 -0.0049324 0.00252533 -0.000892639 0.00174713 -0.00218201 0.00439835 -0.00278473 -0.00601578 -0.00291443 -0.003582
0.00103378 0.00454712 0.00244904 0.00358582 0.00647736 -7.24792e-005 0.00379181 -0.00120163 0.00113678 -0.00485992 0.00349045 -0.00899124 0.0385971 0.14563 -55.7189 0.120983 0.136051 0.150024 0.127838 0.0790443 0.145374 0.145245 0.144306 0.154163 0.134686 0.102558 -55.7189 0.00431061 0.00247574 -0.0277424 -0.0014801 -0.00270844 0.00312042 -55.7189 -0.0264778 -0.000656128 0.00657272 -0.00495911 0.00248718 -0.00301933 -0.0019455 -0.00461578 0.0314388 0.162081 0.165237 0.178226 0.157104 0.170898 0.136295 -55.7189 0.135652 0.123638 0.126221 0.0806503 0.103525 0.0676231 -55.7189 0.00222015 0.00754293 -0.000537872 0.0131073 0.011013 0.00852585 0.00650597 0.0100899 0.010601 0.00215912 0.00345993 0.00144196 0.00165685 0.0389468 -0.00730133 -0.0120773 -0.0160255 -0.0263443 -0.00194168 -0.00741386 -0.00988007 -0.115654 -0.00922585 0.131216 0.358074 0.321632 0.294155 0.279011 0.357441 0.302601 0.354935 0.268978 -55.7189 0.0941601 0.0884094 0.116306 0.123886 0.123123 0.145996 0.122726 -55.7189 -0.000417709 0.00196457 -0.00300217 -0.00043869 -0.00922394 -0.00146866 -0.00208092 -4.00543e-005 -0.0021286 0.00109863
0.00782585 0.00739288 -0.00468826 0.00289917 -0.0102692 -0.00318527 0.00918198 0.00167847 0.00385284 -0.010849 0.00180817 0.0019989 0.0428677 0.178947 -55.7189 0.110027 0.128642 0.112457 0.130859 0.0668716 0.146173 0.147324 0.150951 0.141727 -55.7189 0.117088 0.0127258 0.00807571 -55.7189 -0.0350018 -0.00159454 0.0020256 -0.00149155 -0.0197754 -0.000648499 -55.7189 -0.032046 0.00108337 0.00296402 -0.00358582 -0.00127792 -0.00395203 0.0310364 0.127663 0.162197 0.170376 0.159542 0.153971 0.149887 -55.7189 0.124287 0.101654 0.114285 0.118534 0.0863838 0.0751801 -55.7189 0.00450706 -0.000358582 0.00645065 0.0100098 0.00901222 0.00167847 0.00746918 0.00893021 0.00255203 0.0118904 0.00392914 0.000125885 0.00359726 0.0478363 -0.00783539 0.0043602 -0.0177021 -0.0128517 -0.000709534 -0.0071907 -0.0468597 -0.0383644 -0.0102768 0.0726318 0.348902 0.316223 0.293205 0.271004 0.338402 0.285667 0.34531 0.263557 -55.7189 0.104546 0.0864983 0.121763 0.118626 0.137196 0.155249 0.117775 0.0128632 -0.00232124 -0.00193405 0.00179291 -0.00238419 -0.0154114 0.00655365 -0.00386429 -0.00421524 -0.00465012 -0.00653458
0.00369263 0.00397491 -0.00413895 0.0019722 -0.00521088 -0.00405502 0.0030098 -0.00457382 -0.00616455 -0.00626373 0.000301361 -0.00862122 0.0196877 0.18741 0.159344 0.113949 0.126007 -55.7189 0.128578 0.0914803 0.137466 0.15447 0.158375 0.141563 0.134544 -55.7189 0.0352898 -0.000553131 -55.7189 -0.0102628 -0.00336075 0.00561905 -0.00103378 -0.00249481 0.00653839 -0.0132484 0.00338745 -0.00376892 0.00284958 0.000606537 0.00372314 -0.00746155 0.0166788 0.11273 0.181953 0.15996 0.162701 0.152405 0.153748 0.0731354 0.116394 0.111828 0.108276 0.0880318 0.0848541 0.0772095 0.0179214 -0.00668716 -0.000911713 -0.00315285 0.00289345 0.0226173 0.00494003 0.00754166 0.00626373 0.0120926 0.0109072 -0.00274658 0.00561905 0.00836182 0.0370407 0.00366592 -0.00541115 -0.0184135 -0.0145607 0.00468445 -0.00471115 -0.00564957 -0.0533009 -0.00953674 0.118545 0.270283 0.302872 0.307217 0.280712 0.33075 0.324033 -55.7189 0.269489 -55.7189 0.138599 0.0888901 0.124664 0.137241 0.150784 0.152931 0.131981 0.04105 0.000431061 -0.00719452 -0.00747871 -0.000322342 -0.0065155 -0.00310516 -0.0074234 -0.00610352 -0.0052681 0.00143051
-55.7189 -0.00345993 -0.00585556 -0.00150681 -0.00323296 -0.00798798 -0.00671768 0.00128555 -0.00110626 -0.00536346 0.00869751 -0.000389099 0.0347646 0.155314 0.151356 -55.7189 0.134285 -55.7189 0.111439 0.0986462 0.131204 0.147728 0.148727 0.156273 0.1366 -55.7189 0.0659866 0.00724411 -0.00637817 -0.00979996 -0.00416183 -0.00574875 -0.00551605 0.00250244 -0.0417213 -0.011982 -0.000442505 -0.002491 -0.00514984 0.00209045 0.00413513 0.00235367 0.020668 0.106679 0.165283 0.154808 0.16074 0.155998 0.157337 0.0655327 0.153059 0.101791 0.120533 0.10778 0.0971146 0.0890274 0.0414848 0.0062027 0.00897789 -0.00246429 -0.00223923 0.0126381 0.00934219 0.00267029 0.0077858 0.00728989 0.0129776 0.00324631 0.00509262 0.00331116 0.0345802 0.0241966 0.00276566 -0.0199356 -0.0149117 0.00121498 -0.0093689 -55.7189 -0.060257 -0.00202942 0.123645 0.23947 0.303337 0.312782 0.29579 0.314163 0.305626 -55.7189 0.28212 0.238544 -55.7189 0.0972462 0.145506 0.133469 0.133514 0.138039 0.139862 0.067421 -0.00166702 -0.00829315 -0.00889206 0.000713348 -0.00704193 -0.00201988 -0.00720215 -0.00765228 0.000587463 -0.0048027
