# .PCD v0.7 - Point Cloud Data file format
VERSION 0.7
FIELDS x y z
SIZE 4 4 4
TYPE F F F
COUNT 1 1 1
WIDTH 1695
HEIGHT 1
VIEWPOINT 0 0 0 1 0 0 0
POINTS 1695
DATA ascii
-110.54 40.948502 16.443501
-110.427 40.957333 16.453001
-110.33367 40.955669 16.464001
-110.25567 40.959 16.442333
-110.15933 40.962669 16.456001
-110.058 40.966751 16.450249
-109.95634 40.971672 16.441669
-109.86533 40.971336 16.448002
-109.8 40.976002 16.454
-109.6165 40.978001 16.4445
-109.442 40.926998 16.444
-105.5 40.916 16.452999
-116.944 41.014999 16.444
-108.091 41.0345 16.4545
-107.93567 41.034668 16.443668
-107.803 41.042 16.447001
-107.74133 41.040333 16.449001
-107.64301 41.0495 16.439501
-107.5555 41.054501 16.4725
-107.46167 41.059998 16.432335
-107.3624 41.063396 16.451599
-107.23967 41.06567 16.443333
-107.13967 41.069336 16.451
-107.0595 41.0755 16.460501
-106.837 41.0825 16.452999
-106.7685 41.085999 16.445999
-106.401 41.098 16.443001
-106.36166 41.093666 16.460667
-106.2755 41.095501 16.470001
-106.13451 41.098999 16.446999
-105.502 41.07 16.443001
-116.947 41.161499 16.463501
-106.251 41.108002 16.43
-106.153 41.105331 16.451332
-106.0325 41.111752 16.453501
-105.958 41.117001 16.441999
-105.674 41.127998 16.402
-105.535 41.125 16.445
-116.96049 41.279499 16.438999
-104.045 41.323502 16.431499
-103.9612 41.326401 16.450602
-103.856 41.349998 16.424
-116.9595 41.429001 16.432501
-103.712 41.411999 16.448999
-103.64901 41.419003 16.454
-103.5545 41.425999 16.415001
-102.464 41.458 16.437
-116.967 41.536499 16.459999
-103.813 41.502998 16.4
-116.971 41.694 16.419001
-116.978 41.8395 16.441
-116.987 41.9855 16.4345
-116.9915 42.122498 16.421
-116.997 42.2295 16.448002
-117 42.347 16.447001
-117.001 42.487 16.423
-117 42.487999 16.499001
-117.008 42.616001 16.464001
-117.015 42.757 16.438999
-117.02 42.887501 16.443001
-117.026 43.132999 16.472
-117.038 43.240002 16.426001
-117.15334 43.389671 16.465
-117.0385 43.374001 16.428501
-116.824 38.097 16.589001
-116.755 38.085335 16.556335
-116.658 38.089199 16.550001
-116.53775 38.092251 16.556252
-116.44167 38.095001 16.552666
-116.335 38.098999 16.537001
-116.288 38.098999 16.507999
-116.193 38.098999 16.52
-116.829 38.139 16.531
-116.606 38.102001 16.513
-116.374 38.101002 16.559
-116.257 38.105003 16.563999
-116.159 38.108002 16.556
-116.052 38.111252 16.5495
-115.93324 38.116249 16.543249
-115.83934 38.122337 16.560333
-115.74434 38.120003 16.559668
-115.64301 38.12775 16.555
-115.54733 38.129002 16.551666
-115.4645 38.128998 16.547501
-115.35875 38.138748 16.548748
-115.258 38.137001 16.507
-115.12134 38.145 16.553333
-115.02533 38.150002 16.545668
-114.92999 38.157001 16.561666
-114.8485 38.159996 16.5525
-114.75851 38.16 16.550999
-114.66425 38.166 16.5525
-114.55975 38.16925 16.534
-114.44025 38.171997 16.566999
-114.343 38.176666 16.539665
-114.24075 38.185501 16.543751
-114.14751 38.18375 16.55225
-114.04867 38.185333 16.549332
-113.965 38.184502 16.541
-113.85925 38.19175 16.533499
-113.753 38.188999 16.551001
-113.697 38.194 16.586
-113.789 38.205002 16.587999
-113.65175 38.207249 16.533749
-113.552 38.208748 16.546249
-113.447 38.211197 16.555401
-113.35467 38.21067 16.535667
-113.26134 38.219002 16.552334
-113.155 38.219002 16.536667
-113.05667 38.222668 16.555
-112.9675 38.223 16.550999
-112.87801 38.228333 16.548002
-112.76125 38.234749 16.552999
-112.632 38.243999 16.5585
-112.54834 38.248333 16.551666
-112.45901 38.245667 16.555668
-112.358 38.248749 16.548
-112.257 38.254669 16.547001
-112.14825 38.256001 16.546
-112.04225 38.262001 16.55625
-111.92734 38.264664 16.555668
-111.83434 38.262337 16.557333
-111.773 38.273499 16.537498
-116.83266 38.343334 16.554667
-109.25634 38.356667 16.554001
-109.15566 38.368336 16.565334
-109.09399 38.366001 16.534
-105.507 38.307999 16.541
-105.44701 38.310001 16.553669
-105.35425 38.311001 16.554249
-105.258 38.312668 16.547001
-105.168 38.341 16.557999
-109.321 38.41 16.528999
-106.613 38.484001 16.571499
-106.54266 38.460335 16.559668
-106.44561 38.465401 16.545799
-106.34367 38.469002 16.536001
-106.24574 38.470497 16.543499
-106.14166 38.477669 16.546333
-106.04733 38.481335 16.558334
-105.9425 38.48175 16.546751
-105.8448 38.484802 16.557201
-105.74575 38.4865 16.5625
-105.64867 38.494667 16.556999
-105.53875 38.466 16.568501
-116.837 38.507 16.5495
-109.329 38.5495 16.539501
-105.545 38.505001 16.542999
-105.03674 38.522251 16.544001
-104.94033 38.527004 16.543667
-104.85201 38.53067 16.559002
-104.75559 38.528603 16.541601
-104.63134 38.540668 16.564667
-104.557 38.539665 16.542334
-104.45901 38.544334 16.554668
-104.35725 38.547752 16.546999
-104.25541 38.553402 16.554001
-104.1395 38.557999 16.570999
-103.843 38.557999 16.583
-103.708 38.566002 16.584
-103.55634 38.577999 16.549002
-103.4465 38.5825 16.577499
-103.3275 38.586502 16.542999
-103.24834 38.592003 16.557001
-103.16167 38.590668 16.521999
-103.02966 38.596001 16.546667
-102.9485 38.598 16.5345
-116.8465 38.6455 16.550499
-109.333 38.673 16.570999
-106.6245 38.668999 16.550999
-103.143 38.604 16.547001
-103.097 38.599998 16.577
-102.92 38.605 16.587
-102.84167 38.607002 16.558334
-102.76367 38.612335 16.535336
-102.668 38.61367 16.543333
-102.592 38.615002 16.552
-102.456 38.617001 16.568001
-102.14301 38.627666 16.556002
-102.05367 38.633667 16.546333
-101.941 38.639797 16.5492
-101.83501 38.646667 16.549667
-101.743 38.650337 16.562
-101.66901 38.652 16.540001
-101.5885 38.6595 16.557499
-112.041 38.754002 16.511999
-109.331 38.706001 16.535999
-116.8515 38.813999 16.564999
-113.2215 38.873501 16.5385
-112.043 38.895 16.575001
-109.342 38.872498 16.542999
-106.636 38.830002 16.542
-116.866 38.998001 16.558001
-112.045 38.917 16.532
-106.641 38.994999 16.559999
-116.862 39.049999 16.528999
-113.233 39.038002 16.562
-112.0555 39.043503 16.556
-109.3515 39.031998 16.5665
-106.641 39.025002 16.516001
-105.94 39.082001 16.532
-116.874 39.182999 16.583
-112.057 39.193001 16.594999
-109.361 39.195999 16.548
-106.6525 39.1595 16.537498
-101.825 39.150002 16.523001
-116.873 39.231003 16.524
-113.239 39.233498 16.5355
-112.0605 39.227501 16.530499
-116.8755 39.359501 16.5735
-113.248 39.368999 16.561001
-112.0705 39.382999 16.543499
-109.364 39.361 16.554001
-106.6595 39.323502 16.546499
-105.445 39.384003 16.549
-101.827 39.333 16.559
-116.88049 39.488499 16.567501
-113.247 39.400002 16.52
-109.375 39.497002 16.546
-106.666 39.466 16.573999
-101.83549 39.485001 16.539
-116.339 39.529999 16.558334
-116.23167 39.538666 16.547333
-116.14534 39.535336 16.555334
-116.04375 39.541 16.5495
-115.94933 39.546001 16.540001
-115.85 39.542999 16.542
-115.73926 39.553001 16.564251
-115.6405 39.552002 16.543501
-115.56033 39.555336 16.536335
-115.46867 39.562336 16.549335
-115.372 39.568336 16.563335
-115.24774 39.572498 16.550249
-115.126 39.572998 16.535999
-115.03133 39.577332 16.549334
-114.93401 39.583672 16.556667
-114.836 39.583672 16.555
-114.6585 39.5835 16.547001
-114.591 39.591999 16.51
-114.41 39.589001 16.535999
-114.335 39.5965 16.535
-114.024 39.598999 16.534
-113.257 39.5285 16.539501
-112.081 39.542999 16.5555
-106.663 39.505001 16.537001
-105.4505 39.546501 16.564499
-116.886 39.621002 16.568501
-116.369 39.675999 16.586
-114.44949 39.603001 16.536999
-114.354 39.601002 16.589001
-114.229 39.604332 16.542667
-114.13033 39.607998 16.559668
-114.064 39.612 16.569
-113.95867 39.612667 16.552334
-113.866 39.61367 16.555334
-113.75751 39.616749 16.54925
-113.64024 39.619751 16.5655
-113.562 39.613998 16.559999
-113.2645 39.681503 16.544001
-109.384 39.633999 16.542
-107.854 39.681999 16.573999
-107.186 39.685001 16.51
-106.675 39.621498 16.5495
-105.457 39.686001 16.586
-101.83949 39.635002 16.543499
-116.9 39.784 16.57
-116.36749 39.7355 16.5275
-112.089 39.710503 16.564499
-109.391 39.773998 16.533001
-107.854 39.702999 16.525
-107.52567 39.766335 16.539667
-107.467 39.734001 16.52
-107.214 39.745499 16.552
-106.86434 39.745003 16.532333
-106.683 39.760498 16.547001
-105.459 39.710999 16.537001
-116.893 39.828999 16.538
-113.2695 39.843002 16.549999
-112.0945 39.872002 16.564501
-107.8625 39.8195 16.5375
-107.55949 39.859501 16.551498
-107.27 39.835499 16.5285
-106.92367 39.838665 16.542
-106.692 39.893002 16.573999
-105.463 39.855 16.521999
-116.901 39.995998 16.551001
-116.374 39.914501 16.543999
-113.283 39.984001 16.543499
-109.759 39.991501 16.556
-109.67 39.966 16.591
-109.402 39.912998 16.525999
-107.8755 39.942497 16.525501
-107.65133 39.943336 16.545334
-107.311 39.958 16.555
-107.276 39.926998 16.507999
-107.013 39.986 16.538
-106.981 39.928001 16.528
-106.689 39.936001 16.548
-105.468 39.966999 16.556999
-104.54601 39.980331 16.540335
-104.443 39.98325 16.540749
-104.34425 39.983501 16.552999
-104.248 39.989502 16.554001
-104.169 39.989334 16.547333
-104.09399 39.984497 16.547001
-116.3775 40.07 16.547001
-112.103 40.015999 16.593
-112.1 40.028 16.532
-109.825 40.053001 16.538
-109.73933 40.004669 16.544334
-109.63261 40.026802 16.5368
-109.572 40.011002 16.540001
-109.405 40.084999 16.538
-106.707 40.034 16.579
-105.461 40.001999 16.521999
-103.864 40.007 16.587999
-102.6412 40.047401 16.554001
-102.5145 40.052002 16.5555
-102.45 40.057671 16.530668
-116.909 40.134998 16.537001
-116.423 40.121498 16.528
-116.4 40.120998 16.576
-113.28751 40.141998 16.550499
-112.109 40.149498 16.549
-109.834 40.168999 16.540501
-105.47 40.122002 16.533001
-116.91451 40.267998 16.557999
-113.312 40.230999 16.552
-112.119 40.285 16.550499
-109.838 40.298 16.555
-109.653 40.205002 16.500999
-109.43967 40.255001 16.567001
-105.478 40.275002 16.539001
-109.836 40.319 16.503
-109.457 40.357498 16.5215
-116.91251 40.418503 16.5555
-112.127 40.441002 16.533001
-109.541 40.435001 16.566999
-105.48351 40.434998 16.552999
-116.922 40.558998 16.5515
-105.49 40.576 16.583
-105.122 40.553001 16.528
-105.04767 40.551331 16.563002
-104.993 40.550999 16.576
-116.932 40.695 16.504999
-109.527 40.617001 16.573
-109.437 40.639999 16.539
-116.927 40.702 16.579
-112.142 40.754002 16.542999
-105.497 40.743 16.521
-116.935 40.834 16.563
-112.8105 40.869499 16.5415
-112.73267 40.869003 16.546001
-112.63534 40.875 16.560667
-112.55934 40.875332 16.539667
-111.7425 40.897999 16.5425
-109.502 40.838001 16.540001
-116.948 40.959999 16.542999
-111.772 40.91 16.511
-111.64575 40.908497 16.54925
-111.56133 40.914669 16.538334
-111.45625 40.910999 16.540249
-111.005 40.931499 16.555
-110.957 40.936001 16.563
-110.757 40.940002 16.544334
-110.66634 40.940334 16.550667
-110.5546 40.9454 16.544199
-110.43401 40.951668 16.546333
-110.34033 40.950665 16.559334
-110.23199 40.954334 16.543335
-110.134 40.967335 16.560335
-110.0485 40.967499 16.547001
-109.965 40.968338 16.535
-109.87167 40.971001 16.543333
-109.794 40.981998 16.528999
-109.61 40.974998 16.540001
-109.5555 40.990997 16.549999
-108.083 41.033001 16.556999
-107.9625 41.035 16.5555
-107.89 41.040001 16.542999
-107.748 41.042 16.542801
-107.632 41.050003 16.546667
-107.54467 41.05267 16.551666
-107.46224 41.060749 16.546
-107.367 41.059998 16.547501
-107.27567 41.07 16.540667
-107.17599 41.070667 16.544668
-107.08067 41.073334 16.552334
-106.835 41.066002 16.541
-106.784 41.0825 16.561001
-106.341 41.09 16.542
-106.265 41.094002 16.566
-105.503 41.054001 16.540501
-116.95 41.123001 16.540001
-106.288 41.099998 16.516001
-106.175 41.105999 16.559668
-106.07967 41.105667 16.560333
-105.97224 41.1105 16.551001
-105.5285 41.123501 16.5455
-116.9585 41.255501 16.554501
-116.964 41.396999 16.511999
-104.0565 41.330498 16.548
-103.94334 41.334999 16.539333
-103.898 41.338001 16.577999
-116.962 41.401001 16.584
-103.703 41.417 16.547001
-103.661 41.412998 16.546
-116.97 41.667 16.542999
-116.983 41.793999 16.516001
-116.98 41.963001 16.586
-116.99451 42.093498 16.537001
-116.995 42.233002 16.556999
-117.004 42.335999 16.547001
-117.008 42.591 16.553001
-117.01 42.744499 16.5355
-117.0185 42.859501 16.562
-117.02 42.993999 16.568001
-117.024 43.000999 16.504
-117.031 43.105 16.563
-117.034 43.23 16.561001
-117.14149 43.3895 16.549999
-117.037 43.357498 16.561001
-116.8195 38.0825 16.6745
-116.75967 38.081337 16.642666
-116.66866 38.086334 16.649
-116.55141 38.0914 16.665602
-116.44534 38.095669 16.646
-116.3385 38.097 16.674999
-116.276 38.098 16.641001
-116.3455 38.103001 16.616001
-116.2225 38.104 16.6465
-116.1555 38.109497 16.647499
-116.07201 38.111336 16.641335
-115.97433 38.115334 16.646336
-115.87667 38.114334 16.642668
-115.75925 38.1255 16.646
-115.64149 38.129749 16.67325
-115.55267 38.126667 16.645334
-115.4515 38.13575 16.651251
-115.34834 38.138336 16.653999
-115.2875 38.141998 16.635
-115.16 38.145 16.668499
-115.069 38.145248 16.649
-114.95275 38.152 16.64925
-114.84367 38.161003 16.655334
-114.752 38.163002 16.653
-114.65933 38.166 16.657667
-114.55975 38.164001 16.647999
-114.45567 38.172333 16.651001
-114.3455 38.175499 16.65
-114.2405 38.179001 16.657499
-114.129 38.181999 16.664
-114.05334 38.184669 16.641668
-113.95074 38.193748 16.643499
-113.855 38.194 16.653
-113.7625 38.1945 16.627998
-113.686 38.195999 16.645
-113.587 38.198002 16.641001
-113.356 38.199001 16.681999
-116.83 38.281502 16.664001
-113.728 38.200001 16.677
-113.63499 38.205502 16.651001
-113.5415 38.202499 16.646
-113.44749 38.209 16.650751
-113.33 38.211334 16.632334
-113.234 38.218002 16.651001
-113.15633 38.224998 16.638
-113.05934 38.217999 16.647667
-112.951 38.228249 16.64975
-112.8535 38.230499 16.658001
-112.75267 38.236336 16.653667
-112.6558 38.2384 16.634602
-112.54325 38.243999 16.6485
-112.43134 38.247665 16.650333
-112.33633 38.248333 16.659
-112.26134 38.253334 16.641003
-112.16534 38.258667 16.657669
-112.05833 38.262665 16.639334
-111.96466 38.263336 16.646332
-111.853 38.267998 16.651751
-111.764 38.272999 16.631001
-109.321 38.368 16.653
-109.256 38.365002 16.648666
-109.15868 38.368332 16.657001
-109.0745 38.373001 16.660999
-105.503 38.304001 16.605
-105.44175 38.313 16.661501
-105.33767 38.310333 16.663334
-105.26434 38.310669 16.636333
-105.1875 38.316002 16.6455
-116.8385 38.462997 16.6395
-109.319 38.401001 16.618
-109.01 38.445 16.655001
-108.94833 38.451332 16.665335
-108.85767 38.451004 16.670334
-108.75299 38.465668 16.659002
-108.64825 38.462749 16.6705
-108.52133 38.473671 16.660667
-108.422 38.469002 16.66367
-108.3265 38.483002 16.665001
-108.2275 38.477997 16.672501
-108.131 38.480499 16.6835
-108.014 38.484001 16.674999
-107.917 38.487999 16.676001
-107.815 38.487 16.677999
-107.743 38.491997 16.67
-107.677 38.490002 16.660999
-107.582 38.490002 16.662001
-107.486 38.494999 16.667
-107.395 38.498001 16.684999
-106.606 38.460999 16.646
-106.55267 38.462002 16.653999
-106.45201 38.468334 16.642668
-106.34866 38.468334 16.633667
-106.25334 38.476669 16.659668
-106.14733 38.475002 16.638668
-106.05234 38.477333 16.643667
-105.961 38.480335 16.649666
-105.85825 38.483749 16.6535
-105.74133 38.487335 16.678333
-105.656 38.488998 16.644669
-105.55833 38.465004 16.648666
-109.3265 38.5355 16.653
-108.814 38.509998 16.655001
-108.246 38.521 16.653
-108.156 38.500999 16.65
-108.057 38.509998 16.662001
-107.957 38.516998 16.665001
-107.863 38.507 16.66
-107.6135 38.529999 16.688
-107.524 38.537998 16.667999
-107.439 38.526001 16.669001
-107.347 38.521 16.677
-107.25033 38.529999 16.674
-107.115 38.516998 16.681999
-107.037 38.532501 16.685501
-106.939 38.556999 16.6835
-106.8465 38.546997 16.681
-106.75 38.544998 16.681
-106.64568 38.556 16.671667
-105.754 38.5 16.679001
-105.53 38.502998 16.667
-105.01934 38.522667 16.656334
-104.94766 38.527664 16.640335
-104.862 38.530666 16.655666
-104.76875 38.528 16.651001
-104.65276 38.536499 16.654249
-104.5335 38.539497 16.652248
-104.43166 38.542 16.646
-104.34067 38.546001 16.653
-104.2344 38.5508 16.654001
-104.1305 38.557499 16.6635
-104.039 38.560501 16.674999
-103.975 38.566498 16.640499
-103.86833 38.562332 16.65
-103.7465 38.563499 16.6385
-103.52467 38.585667 16.65
-103.42534 38.585003 16.658669
-103.33701 38.588001 16.653999
-103.25334 38.589001 16.648001
-103.1595 38.592499 16.643749
-103.032 38.593498 16.621
-102.98 38.595497 16.649502
-116.84151 38.622002 16.6595
-109.334 38.6675 16.659
-106.636 38.656998 16.646
-103.068 38.606499 16.657501
-102.9335 38.603001 16.66
-102.845 38.607002 16.650333
-102.7405 38.61425 16.645248
-102.65466 38.616333 16.646667
-102.22734 38.624668 16.652668
-102.13033 38.637337 16.666
-102.05833 38.640335 16.644335
-101.97267 38.639 16.653999
-101.8632 38.644802 16.649801
-101.74734 38.651333 16.656
-101.64675 38.654503 16.657249
-101.577 38.658001 16.653
-116.85 38.764503 16.6595
-116.384 38.790001 16.677
-106.6295 38.785 16.661499
-116.423 38.830002 16.671
-116.3535 38.835999 16.6675
-116.2585 38.841 16.675499
-116.15768 38.856667 16.674334
-116.057 38.849503 16.678249
-115.94051 38.859497 16.679501
-115.83667 38.864002 16.679335
-115.75349 38.8615 16.674999
-115.642 38.843666 16.682667
-115.524 38.835999 16.677502
-115.45 38.858002 16.68
-115.354 38.856998 16.68
-115.23 38.877502 16.681
-115.1425 38.866501 16.681
-115.029 38.870998 16.684999
-114.797 38.862999 16.688999
-114.646 38.882 16.688
-114.559 38.865002 16.688
-114.327 38.890999 16.681999
-113.809 38.888 16.681
-113.222 38.842999 16.611
-109.338 38.827499 16.625999
-106.647 38.832001 16.652
-116.86067 38.948002 16.654335
-116.409 38.917 16.674999
-116.351 38.956665 16.674
-116.2385 38.922501 16.671501
-116.134 38.971001 16.677
-116.05 38.9645 16.679501
-115.94733 38.932999 16.673668
-115.847 38.963001 16.681999
-115.7305 38.957497 16.678501
-115.645 38.933502 16.674999
-115.553 38.927002 16.679501
-115.46167 38.949001 16.686333
-115.366 38.943336 16.68
-115.26733 38.947334 16.681
-115.162 38.9645 16.682499
-115.05233 38.95433 16.683001
-114.9485 38.923 16.685501
-114.74434 38.94767 16.686001
-114.6515 38.961498 16.691
-114.562 38.938499 16.686001
-114.4585 38.939751 16.69075
-114.373 38.9645 16.688499
-114.24976 38.958752 16.688499
-114.14034 38.948669 16.689333
-114.04867 38.937668 16.689001
-113.965 38.933998 16.681999
-113.875 38.950333 16.689335
-113.7735 38.957001 16.6905
-113.6575 38.957001 16.685751
-113.55499 38.942001 16.688
-113.4515 38.9515 16.689499
-113.34767 38.954002 16.683334
-113.2565 38.968002 16.684
-112.75 38.956501 16.666
-112.659 38.938499 16.67
-112.554 38.969498 16.670502
-112.4595 38.954498 16.67
-112.389 38.962002 16.67
-112.24467 38.967003 16.667667
-112.1345 38.958 16.664499
-112.067 38.973 16.667
-109.3475 38.983002 16.6495
-106.64101 38.955666 16.663002
-116.428 39.051998 16.674
-116.3495 39.072502 16.675499
-116.26733 39.042004 16.676001
-116.17166 39.039665 16.68
-116.0715 39.051498 16.675999
-115.96033 39.054337 16.680334
-115.85733 39.051666 16.677668
-115.76367 39.046001 16.683001
-115.6605 39.047001 16.679501
-115.548 39.04575 16.681749
-115.4295 39.051498 16.68
-115.334 39.050499 16.681
-115.2375 39.050003 16.68
-115.144 39.0495 16.683001
-115.053 39.046501 16.686001
-114.94125 39.043251 16.6845
-114.72701 39.067001 16.688
-114.6335 39.0495 16.689499
-114.543 39.025497 16.683498
-114.442 39.059998 16.688999
-114.356 39.043499 16.684999
-114.2655 39.040501 16.682499
-114.1665 39.058998 16.689499
-114.05334 39.058334 16.689667
-113.9445 39.025002 16.682999
-113.8395 39.062 16.686501
-113.7525 39.042503 16.686001
-113.683 39.050999 16.686001
-113.54467 39.044998 16.683002
-113.43401 39.034 16.684999
-113.33051 39.067001 16.6845
-113.248 39.024498 16.6625
-112.806 39.001999 16.67
-112.756 39.035 16.669001
-112.65701 39.046001 16.669001
-112.539 39.0555 16.671001
-112.441 39.043999 16.672501
-112.33568 39.049999 16.669003
-112.2445 39.064499 16.668999
-112.1535 39.058998 16.67
-112.07 39.037003 16.661499
-106.661 39.043999 16.687
-116.868 39.166 16.6745
-116.421 39.163002 16.678501
-116.33051 39.158501 16.677
-116.233 39.158501 16.6805
-116.136 39.156502 16.684502
-116.0495 39.137497 16.675999
-115.94967 39.152336 16.674667
-115.84534 39.159332 16.678001
-115.734 39.1525 16.681499
-115.62967 39.157001 16.680334
-115.543 39.1605 16.677502
-115.454 39.148499 16.681999
-115.364 39.138 16.6835
-115.2645 39.143501 16.686001
-115.14633 39.130669 16.681
-115.034 39.126999 16.681999
-114.953 39.173668 16.682335
-114.849 39.143501 16.684502
-114.659 39.151001 16.688999
-114.55334 39.155666 16.690334
-114.462 39.1665 16.692001
-114.35167 39.138336 16.691002
-114.244 39.129997 16.688999
-114.153 39.129501 16.6845
-114.04634 39.154671 16.684668
-113.954 39.148666 16.684
-113.84467 39.149666 16.688002
-113.7265 39.139999 16.6875
-113.64349 39.158001 16.688
-113.5415 39.153 16.688499
-113.45551 39.129501 16.681499
-113.36834 39.143669 16.686001
-113.25075 39.168499 16.658499
-112.811 39.153999 16.677
-112.757 39.144005 16.677666
-112.661 39.139503 16.6735
-112.56 39.163002 16.671
-112.44701 39.132668 16.674667
-112.342 39.151001 16.674
-112.271 39.157501 16.671001
-112.15633 39.151669 16.669668
-112.067 39.146 16.660999
-109.3595 39.166 16.6245
-106.65768 39.150333 16.664333
-106.163 39.171001 16.690001
-106.053 39.176498 16.6845
-105.9725 39.151001 16.6835
-105.804 39.181 16.688999
-105.721 39.153 16.686001
-105.663 39.195 16.686001
-105.574 39.175999 16.674
-105.488 39.169998 16.674999
-116.414 39.27 16.674
-116.353 39.248001 16.677
-116.266 39.243 16.675499
-116.167 39.242001 16.679001
-116.04833 39.227001 16.678665
-115.9725 39.267502 16.6775
-115.85834 39.275337 16.682669
-115.754 39.255001 16.684
-115.6655 39.238503 16.681
-115.547 39.237 16.676001
-115.45034 39.257668 16.686001
-115.3455 39.220497 16.6805
-115.25134 39.245335 16.684668
-115.15334 39.248665 16.686001
-115.05666 39.25 16.686666
-114.953 39.265499 16.688
-114.864 39.254997 16.688499
-114.797 39.261002 16.688999
-114.622 39.216 16.688
-114.537 39.2705 16.688999
-114.4425 39.255501 16.691
-114.353 39.234001 16.687
-114.269 39.238998 16.686001
-114.1595 39.232498 16.6905
-114.0715 39.263 16.685501
-113.95634 39.268333 16.684668
-113.8445 39.250999 16.686001
-113.7555 39.230499 16.684
-113.65199 39.264999 16.6875
-113.567 39.2435 16.684502
-113.44901 39.248249 16.682499
-113.3365 39.247501 16.6805
-113.262 39.266998 16.686001
-112.823 39.283001 16.674
-112.74467 39.242336 16.671333
-112.63651 39.237 16.675999
-112.5365 39.2635 16.674999
-112.448 39.238998 16.675499
-112.35934 39.238003 16.670002
-112.248 39.255501 16.676001
-112.1555 39.241001 16.672501
-112.085 39.254002 16.672001
-106.657 39.292 16.660999
-106.15375 39.248253 16.685749
-106.0685 39.271 16.686001
-105.96334 39.263 16.686333
-105.8655 39.220001 16.6875
-105.75934 39.255005 16.684334
-105.64799 39.257 16.688
-105.5385 39.244999 16.683001
-105.459 39.271999 16.683001
-104.81 39.282001 16.674
-104.752 39.250999 16.676498
-104.645 39.23267 16.674334
-104.55 39.255001 16.679001
-104.46068 39.266998 16.679335
-104.354 39.272499 16.674999
-104.2735 39.253502 16.6735
-104.1735 39.283501 16.672501
-103.799 39.241001 16.658001
-103.017 39.27 16.673
-102.867 39.293999 16.674
-102.781 39.271999 16.667
-102.465 39.296001 16.667999
-102.053 39.299 16.677
-101.825 39.297001 16.660999
-116.879 39.330002 16.652
-116.442 39.327 16.674
-116.34325 39.363499 16.67675
-116.24434 39.355335 16.677334
-116.148 39.332001 16.681499
-116.05367 39.348671 16.681334
-115.9505 39.3545 16.675499
-115.85851 39.360001 16.682999
-115.74933 39.355335 16.681334
-115.646 39.325001 16.678001
-115.554 39.343334 16.684334
-115.44 39.364666 16.681
-115.351 39.348335 16.683001
-115.24434 39.348999 16.685001
-115.141 39.368999 16.679001
-115.04834 39.349335 16.684
-114.93401 39.348 16.684
-114.8455 39.34 16.686001
-114.7455 39.369499 16.685001
-114.604 39.304001 16.688
-114.542 39.348 16.686001
-114.4715 39.3465 16.6835
-114.36601 39.351665 16.684
-114.25234 39.358334 16.690334
-114.144 39.344498 16.688
-114.057 39.337502 16.6835
-113.961 39.348 16.685501
-113.84334 39.35067 16.685333
-113.734 39.351334 16.685333
-113.63 39.355 16.682999
-113.53 39.357002 16.682669
-113.4435 39.365997 16.6835
-113.354 39.356003 16.686501
-113.26167 39.333668 16.653
-112.806 39.366001 16.676001
-112.742 39.342999 16.6745
-112.65466 39.363335 16.677334
-112.57 39.348667 16.678333
-112.472 39.342999 16.674999
-112.34767 39.360668 16.678333
-112.231 39.34 16.6735
-112.134 39.334 16.674999
-112.06551 39.339001 16.636
-109.3665 39.320999 16.625999
-106.683 39.352001 16.693001
-106.207 39.373001 16.698
-106.115 39.348 16.684
-106.0435 39.361 16.6845
-105.964 39.344002 16.684
-105.85033 39.358337 16.682999
-105.7345 39.378502 16.6845
-105.64799 39.3535 16.684
-105.558 39.34 16.6845
-105.4615 39.361 16.671999
-104.744 39.358669 16.680334
-104.64349 39.3265 16.674
-104.55501 39.345669 16.677002
-104.461 39.3465 16.674
-104.34666 39.36367 16.674
-104.247 39.344498 16.672501
-104.1515 39.375 16.674999
-104.091 39.337002 16.67
-103.321 39.363998 16.663
-103.064 39.305 16.667
-102.953 39.348 16.672251
-102.8335 39.346001 16.6675
-102.742 39.342499 16.6735
-102.64733 39.344002 16.666668
-102.564 39.361 16.668499
-102.447 39.376999 16.666
-102.083 39.345001 16.671
-101.9505 39.334999 16.676001
-101.8385 39.341999 16.643
-116.882 39.474998 16.653999
-116.433 39.455498 16.681499
-116.357 39.472 16.681999
-116.2495 39.470497 16.679001
-116.14625 39.444 16.679501
-116.021 39.461502 16.681
-115.924 39.452 16.679001
-115.8345 39.447502 16.682499
-115.7485 39.445503 16.686501
-115.652 39.452003 16.684002
-115.54534 39.448002 16.680334
-115.445 39.473 16.687
-115.3295 39.466499 16.682499
-115.245 39.441498 16.677999
-115.1535 39.436501 16.6835
-115.05933 39.457668 16.682667
-114.955 39.4445 16.685501
-114.84334 39.42767 16.685001
-114.7655 39.466999 16.68
-114.693 39.483002 16.683001
-114.55251 39.417 16.6845
-114.45 39.439999 16.681
-114.3475 39.470001 16.6845
-114.2555 39.448997 16.681
-114.17133 39.449001 16.677999
-114.06226 39.438251 16.68375
-113.95901 39.448002 16.682333
-113.851 39.462749 16.682251
-113.7465 39.468498 16.6835
-113.6545 39.4575 16.685501
-113.5665 39.433502 16.682499
-113.465 39.466499 16.684
-113.35533 39.445667 16.676334
-113.263 39.459999 16.655001
-112.8325 39.455498 16.681999
-112.75366 39.452003 16.67767
-112.693 39.451 16.677999
-112.55434 39.460335 16.677668
-112.4485 39.440498 16.6765
-112.345 39.472 16.679501
-112.2555 39.446503 16.678001
-112.15849 39.437 16.681999
-112.08701 39.440002 16.675999
-109.371 39.484001 16.636
-106.666 39.444504 16.661999
-106.158 39.443668 16.687666
-106.04567 39.448666 16.688
-105.9325 39.441498 16.688
-105.8405 39.473499 16.686501
-105.657 39.424999 16.684999
-105.554 39.454002 16.6845
-105.454 39.484001 16.683001
-104.739 39.446503 16.674999
-104.64734 39.443668 16.674334
-104.54467 39.445999 16.675001
-104.4315 39.446999 16.6775
-104.3395 39.4725 16.679501
-104.242 39.436337 16.674334
-104.14834 39.471001 16.670668
-103.729 39.493 16.652
-103.027 39.441502 16.665501
-102.9535 39.457001 16.667
-102.855 39.451 16.671
-102.744 39.423336 16.671333
-102.66451 39.4655 16.6705
-102.557 39.46067 16.671333
-102.36349 39.437 16.6665
-101.836 39.445 16.671
-116.887 39.595001 16.641001
-116.43 39.569 16.673
-116.34467 39.525002 16.675335
-116.25675 39.53175 16.637749
-116.15334 39.538002 16.652666
-116.06367 39.535999 16.652334
-115.9595 39.5415 16.646502
-115.85899 39.545502 16.654001
-115.75439 39.537601 16.662802
-115.64701 39.553001 16.641798
-115.54675 39.549999 16.647001
-115.45274 39.55225 16.658001
-115.3585 39.546753 16.665751
-115.26225 39.562752 16.656502
-115.158 39.553497 16.654667
-115.04321 39.570801 16.6504
-114.9374 39.558804 16.6598
-114.84041 39.561401 16.662001
-114.73434 39.566002 16.672001
-114.65667 39.583336 16.659332
-114.4584 39.558601 16.669001
-114.372 39.584251 16.65575
-114.254 39.578835 16.655167
-114.111 39.570499 16.667999
-114.0415 39.561001 16.6835
-113.9545 39.556 16.685501
-113.864 39.556 16.682999
-113.769 39.561501 16.683001
-113.653 39.560333 16.685333
-113.542 39.531998 16.684999
-113.439 39.562 16.682499
-113.355 39.536499 16.678001
-113.287 39.542 16.676001
-112.81 39.573002 16.677999
-112.737 39.558998 16.679501
-112.63634 39.54567 16.680668
-112.54649 39.571999 16.686001
-112.441 39.547668 16.684668
-112.354 39.548 16.681999
-112.25167 39.562332 16.682333
-112.14367 39.54467 16.675001
-112.076 39.506001 16.622
-109.384 39.577999 16.695
-106.67934 39.564331 16.673
-106.207 39.583 16.693001
-106.142 39.550499 16.6875
-106.047 39.545502 16.687
-105.955 39.531998 16.6835
-105.895 39.5 16.681999
-105.679 39.506001 16.695999
-105.547 39.5755 16.683001
-105.468 39.526497 16.6635
-104.715 39.537498 16.6745
-104.649 39.537998 16.669001
-104.55934 39.556 16.676666
-104.4525 39.5355 16.6735
-104.36834 39.548336 16.675667
-104.255 39.542999 16.667667
-104.125 39.540001 16.672001
-104.082 39.561001 16.667999
-103.047 39.539001 16.663
-102.9495 39.572998 16.6695
-102.839 39.534 16.667999
-102.74667 39.544998 16.668667
-102.64349 39.552002 16.668499
-102.544 39.559669 16.667
-102.471 39.5355 16.668999
-102.032 39.530998 16.672001
-101.85049 39.555 16.6465
-116.37667 39.661003 16.673
-114.623 39.599998 16.605
-114.245 39.601002 16.667999
-114.14951 39.604 16.649
-114.027 39.607002 16.636669
-113.93401 39.611 16.644667
-113.84435 39.611004 16.644333
-113.75167 39.617336 16.646336
-113.658 39.621002 16.651333
-113.56433 39.615002 16.654999
-113.44701 39.641998 16.679335
-113.3295 39.632999 16.68
-113.27367 39.654671 16.652668
-112.843 39.632999 16.684999
-112.7615 39.653 16.682999
-112.6655 39.653 16.682999
-112.57201 39.654999 16.684502
-112.45867 39.655334 16.680668
-112.353 39.627502 16.679001
-112.2575 39.647999 16.678001
-112.155 39.669998 16.6745
-112.0865 39.655502 16.6565
-109.381 39.624001 16.632
-106.701 39.648998 16.693001
-106.16251 39.651497 16.6915
-106.07401 39.631001 16.681499
-105.9795 39.629997 16.688
-105.812 39.630001 16.679001
-105.732 39.625999 16.690001
-105.5735 39.6465 16.690001
-105.47201 39.665668 16.674667
-104.702 39.664001 16.676001
-104.6475 39.623001 16.675999
-104.553 39.646 16.673
-104.44575 39.647751 16.67425
-104.3295 39.661003 16.674
-104.24651 39.642998 16.672001
-104.1535 39.669502 16.673
-104.011 39.6465 16.663
-103.782 39.624001 16.672001
-103.641 39.653 16.676001
-103.582 39.688 16.665001
-103.0345 39.675499 16.6705
-102.972 39.662998 16.662001
-102.85201 39.654335 16.668999
-102.7575 39.669998 16.670502
-102.64333 39.640335 16.667999
-102.549 39.655998 16.67
-102.436 39.662498 16.667
-102.236 39.675999 16.671
-102.009 39.616001 16.667
-116.896 39.743999 16.6255
-116.441 39.743999 16.687
-116.383 39.785999 16.690001
-113.4415 39.752998 16.681
-113.3535 39.731003 16.678001
-113.2715 39.787003 16.642
-112.822 39.720001 16.681999
-112.74451 39.739502 16.682999
-112.6405 39.748001 16.686501
-112.5455 39.75 16.687
-112.4585 39.740997 16.6835
-112.371 39.7365 16.685501
-112.25134 39.752335 16.682669
-112.164 39.745998 16.677
-112.099 39.793999 16.677999
-109.388 39.765499 16.629002
-107.544 39.782001 16.611
-106.707 39.792999 16.695
-106.681 39.742001 16.629
-106.219 39.721001 16.687
-106.143 39.741501 16.694
-106.03701 39.749672 16.688334
-105.94366 39.741333 16.686001
-105.703 39.722 16.690001
-105.472 39.783001 16.681
-104.6545 39.733498 16.673
-104.54967 39.741333 16.677
-104.454 39.775002 16.672001
-104.3535 39.746498 16.67
-104.24599 39.729336 16.672001
-104.101 39.780998 16.673
-103.088 39.741001 16.658001
-102.741 39.751999 16.6675
-102.645 39.738499 16.666
-102.55367 39.752335 16.668999
-102.46533 39.737999 16.667334
-101.86234 39.725334 16.650667
-116.447 39.84 16.666
-116.3735 39.8605 16.641001
-113.446 39.827 16.677999
-113.347 39.852249 16.67675
-112.834 39.868999 16.684999
-112.74634 39.831001 16.687
-112.6265 39.827499 16.685501
-112.54567 39.851669 16.683668
-112.45034 39.854668 16.684002
-112.345 39.8265 16.682999
-112.249 39.855 16.679001
-112.161 39.837502 16.681
-112.096 39.835999 16.642
-109.3965 39.880997 16.667999
-107.86 39.804001 16.622
-107.615 39.891998 16.615999
-107.571 39.873001 16.643
-107.2425 39.855499 16.67
-106.932 39.881001 16.655001
-106.689 39.878502 16.663
-106.226 39.875999 16.684
-106.14433 39.826 16.688335
-106.063 39.866501 16.6875
-105.9705 39.855999 16.686501
-105.464 39.817001 16.632999
-104.614 39.813 16.684999
-104.536 39.854 16.676001
-104.429 39.855 16.681999
-104.34267 39.858002 16.677334
-104.2365 39.84 16.678501
-103.0285 39.8745 16.671501
-102.826 39.851002 16.671
-102.747 39.827 16.667999
-102.6715 39.839001 16.669001
-102.5455 39.844501 16.664501
-102.414 39.816002 16.660999
-101.964 39.801998 16.674999
-116.902 39.976002 16.605
-116.89951 39.928501 16.663
-116.396 39.951 16.697001
-113.429 39.915001 16.679001
-113.338 39.979 16.677
-113.279 39.944 16.6455
-112.76201 39.95467 16.692333
-112.6485 39.931999 16.691999
-112.5425 39.9655 16.686001
-112.4435 39.966499 16.684
-112.36434 39.946335 16.686001
-112.27634 39.943005 16.686335
-112.15434 39.950336 16.682667
-112.1 39.995998 16.641001
-109.749 39.995998 16.664
-109.611 39.992001 16.653999
-109.397 39.918999 16.6
-107.867 39.933998 16.612
-107.645 39.938 16.603001
-107.297 39.966999 16.624001
-106.15967 39.950333 16.688667
-106.027 39.926998 16.686001
-105.947 39.950001 16.688
-105.469 39.955002 16.615999
-104.55659 39.955597 16.652998
-104.4502 39.960999 16.664001
-104.3458 39.972401 16.6534
-104.243 39.968601 16.653799
-104.16125 39.959499 16.65325
-102.744 39.990002 16.677999
-102.6435 39.945999 16.6775
-102.5495 39.933998 16.68
-102.4435 39.966499 16.679501
-102.353 39.954002 16.6805
-116.912 40.096001 16.646
-116.469 40.021 16.667
-116.37849 40.032001 16.6525
-113.402 40.007 16.674999
-113.347 40.046001 16.672001
-113.287 40.085999 16.67
-112.836 40.030998 16.691
-112.765 40.041 16.688999
-112.6705 40.032501 16.6915
-112.548 40.052334 16.690334
-112.42551 40.051498 16.684999
-112.3265 40.057499 16.685501
-112.23801 40.051498 16.683001
-112.155 40.038002 16.682499
-109.82449 40.0485 16.646
-109.78951 40.005501 16.657501
-109.6745 40.007999 16.668999
-109.4125 40.05925 16.64525
-108.295 40.067001 16.683001
-107.671 40.009998 16.618999
-106.6965 40.0275 16.67
-106.23 40.040001 16.691
-106.1595 40.046501 16.691
-106.05701 40.045334 16.690334
-105.95201 40.031334 16.686666
-102.825 40.026001 16.684
-102.755 40.045998 16.662001
-102.674 40.038002 16.655666
-102.55959 40.0466 16.653799
-102.45125 40.047749 16.651251
-102.263 40.028 16.688
-116.906 40.140999 16.612
-113.326 40.132999 16.672001
-113.289 40.105 16.620001
-112.808 40.126999 16.688999
-112.742 40.131001 16.687
-112.63534 40.150333 16.695333
-112.544 40.163498 16.695499
-112.448 40.156502 16.695499
-112.351 40.153 16.692501
-112.256 40.151001 16.688
-112.1395 40.129501 16.668251
-109.8325 40.156502 16.671001
-106.234 40.196999 16.688
-106.15733 40.140003 16.688
-106.035 40.163002 16.686501
-105.9455 40.143997 16.689499
-105.883 40.104 16.686001
-116.9135 40.2435 16.672001
-113.303 40.230999 16.607
-113.298 40.227001 16.669001
-112.807 40.294998 16.697001
-112.757 40.243 16.6915
-112.642 40.245998 16.691999
-112.564 40.268997 16.696499
-112.448 40.255669 16.692667
-112.33099 40.237999 16.691
-112.23734 40.257 16.685001
-112.13467 40.242001 16.664001
-109.831 40.297001 16.688999
-109.409 40.219002 16.660999
-106.208 40.293999 16.690001
-106.1515 40.252998 16.689499
-106.063 40.233498 16.692001
-105.9635 40.2565 16.690001
-105.475 40.237999 16.607
-116.92 40.374001 16.654999
-112.843 40.342999 16.697001
-112.77451 40.348999 16.694
-112.6825 40.342003 16.698
-112.544 40.356499 16.694
-112.451 40.345501 16.695
-112.34367 40.354668 16.691334
-112.2505 40.3685 16.688
-112.15234 40.343002 16.681667
-109.843 40.348999 16.639999
-109.42 40.387001 16.601999
-106.237 40.352001 16.691999
-106.171 40.355499 16.688
-106.05833 40.337334 16.685001
-105.9405 40.348 16.686501
-105.48151 40.393501 16.650002
-112.725 40.431 16.698
-112.409 40.414001 16.695
-112.35 40.457001 16.694
-112.228 40.460999 16.688499
-112.14101 40.427002 16.6635
-109.851 40.416 16.603001
-106.224 40.473999 16.691
-106.1375 40.462997 16.693501
-106.055 40.440498 16.692501
-105.956 40.461502 16.687
-105.892 40.428001 16.691999
-105.556 40.454002 16.686501
-105.059 40.456001 16.677
-116.921 40.5205 16.6525
-112.74233 40.548 16.698334
-112.562 40.542999 16.695999
-112.473 40.527 16.691999
-109.86 40.518501 16.6665
-109.468 40.505001 16.655001
-106.214 40.597 16.695999
-106.1585 40.554501 16.686501
-106.049 40.536667 16.691002
-105.961 40.535 16.684
-105.88451 40.550499 16.685001
-105.729 40.522999 16.681
-105.49049 40.537998 16.651501
-105.05099 40.555 16.65
-116.931 40.664497 16.6495
-112.678 40.619999 16.698
-112.475 40.686001 16.697001
-106.246 40.643002 16.690001
-106.151 40.663002 16.691002
-106.042 40.643997 16.691
-105.958 40.64967 16.688667
-105.8615 40.641998 16.682999
-105.668 40.653999 16.687
-112.734 40.743 16.697001
-112.651 40.710999 16.691
-112.15466 40.736336 16.654333
-106.223 40.737 16.693001
-106.127 40.735001 16.694
-106.044 40.714001 16.686001
-105.811 40.723 16.684999
-105.671 40.730999 16.683001
-104.201 40.787998 16.694
-116.93449 40.817001 16.651501
-112.802 40.865002 16.634001
-112.74001 40.867668 16.644001
-112.64333 40.867668 16.656668
-112.53467 40.870331 16.639
-112.155 40.835999 16.695
-111.353 40.889 16.625
-109.497 40.845001 16.615999
-106.235 40.884998 16.693001
-106.131 40.889 16.698999
-105.673 40.897999 16.687
-105.503 40.848999 16.615
-104.25134 40.847 16.692335
-104.1525 40.862 16.691999
-104.083 40.882999 16.695
-103.909 40.859001 16.694
-103.855 40.893002 16.694
-116.939 40.9645 16.646
-111.708 40.909 16.6285
-111.644 40.911999 16.663
-111.54926 40.91 16.651249
-111.44934 40.916668 16.653
-111.382 40.921001 16.666
-111.24 40.93 16.665001
-111.165 40.926998 16.6525
-111.0665 40.929001 16.664501
-110.994 40.942001 16.662001
-110.808 40.936001 16.666
-110.733 40.946335 16.648335
-110.64467 40.942333 16.653334
-110.55034 40.944 16.660999
-110.47467 40.945335 16.638668
-110.37866 40.949001 16.653999
-110.25325 40.956497 16.640999
-110.13967 40.965668 16.653002
-110.03951 40.969749 16.644001
-109.93933 40.974667 16.637667
-109.84534 40.98167 16.655334
-109.786 40.985001 16.6325
-109.599 40.98 16.604
-106.2415 40.952499 16.691
-106.146 40.946999 16.694
-106.0495 40.942001 16.694
-105.9765 40.954002 16.689499
-105.614 40.938 16.688
-105.5155 40.956001 16.681499
-104.219 40.994999 16.693001
-104.15001 40.946335 16.689335
-104.039 40.945 16.686501
-103.891 40.933998 16.683001
-103.703 40.979 16.677999
-116.952 41.081001 16.649
-108.123 41.029999 16.652
-108.073 41.031998 16.659
-107.9525 41.036251 16.651501
-107.76175 41.044498 16.654251
-107.655 41.055748 16.645748
-107.5675 41.056999 16.648998
-107.45901 41.059002 16.654335
-107.231 41.066498 16.634501
-107.151 41.072666 16.646667
-107.06067 41.073334 16.652668
-106.83834 41.079334 16.650669
-106.773 41.078999 16.655001
-106.328 41.092999 16.604
-106.27 41.062004 16.676334
-106.1705 41.0355 16.683498
-106.075 41.029999 16.686001
-106 41.048 16.690001
-105.644 41.004002 16.691
-105.534 41.056667 16.669666
-104.135 41.057999 16.692001
-104.079 41.035 16.698999
-103.996 41.026001 16.698999
-103.834 41.029999 16.695
-103.75967 41.064331 16.691669
-103.641 41.034 16.688
-116.945 41.124001 16.612
-106.229 41.102997 16.651001
-106.14767 41.110336 16.657001
-106.04867 41.110336 16.658333
-105.94901 41.112667 16.665335
-105.606 41.119999 16.697001
-105.549 41.126999 16.645
-104.062 41.149002 16.690001
-103.983 41.136497 16.691999
-103.821 41.144001 16.684
-103.7525 41.1595 16.690001
-103.663 41.106998 16.695999
-102.264 41.127502 16.688999
-116.955 41.242001 16.646
-104.028 41.253502 16.693001
-103.933 41.214001 16.691
-103.7195 41.261497 16.687
-103.636 41.247498 16.693501
-102.205 41.250999 16.693001
-102.064 41.27 16.688999
-116.96201 41.373497 16.662498
-104.0485 41.333748 16.6465
-103.94025 41.335251 16.639
-103.591 41.32 16.691999
-103.162 41.312 16.687
-103.098 41.362999 16.691
-116.967 41.498001 16.671
-103.7215 41.414001 16.658001
-103.6525 41.413498 16.659
-103.53951 41.418999 16.677
-103.449 41.413666 16.641001
-116.964 41.527 16.628
-116.96851 41.651001 16.633499
-116.974 41.773998 16.635
-116.9795 41.920998 16.658001
-116.99 42.069 16.649
-117.001 42.187 16.656
-116.996 42.220001 16.614
-117 42.327999 16.641001
-117.00549 42.449001 16.6465
-117.008 42.569 16.645
-117.014 42.695999 16.684
-117.012 42.713001 16.624001
-117.015 42.854 16.671
-117.02451 42.974998 16.6665
-117.033 43.154503 16.679001
-117.032 43.235001 16.638
-117.133 43.382 16.635
-117.041 43.332001 16.652
-117.185 43.449001 16.632999
-117.045 43.453499 16.646999
-116.805 38.080002 16.757999
-116.74174 38.085251 16.7535
-116.64834 38.08667 16.746334
-116.55733 38.088333 16.754667
-116.4465 38.09 16.768002
-116.35001 38.0975 16.788
-116.489 38.101002 16.768999
-116.35234 38.102669 16.735332
-116.24501 38.104668 16.742334
-116.145 38.109249 16.74225
-116.04874 38.112747 16.74925
-115.95075 38.11425 16.748251
-115.853 38.118 16.751249
-115.75334 38.123333 16.745335
-115.661 38.125668 16.755667
-115.54401 38.131004 16.7535
-115.429 38.135002 16.768002
-115.34967 38.142334 16.752666
-115.14101 38.144001 16.748667
-115.047 38.149002 16.764334
-114.956 38.153252 16.734249
-114.83849 38.154499 16.744749
-114.72634 38.165001 16.745335
-114.63067 38.170666 16.754667
-114.5465 38.166 16.745501
-114.45834 38.174332 16.746
-114.36434 38.176003 16.759335
-114.257 38.179665 16.741667
-114.16301 38.184998 16.755333
-114.042 38.191002 16.748501
-113.931 38.188 16.752003
-113.832 38.193336 16.761667
-113.737 38.195999 16.777
-113.626 38.191002 16.724001
-116.826 38.227501 16.746
-113.747 38.2015 16.723999
-113.65033 38.203335 16.754667
-113.56033 38.202999 16.733665
-113.46933 38.207336 16.74
-113.359 38.212002 16.747999
-113.23967 38.213005 16.745335
-113.13451 38.215752 16.74675
-113.02834 38.221336 16.748333
-112.92867 38.227005 16.759335
-112.83101 38.231003 16.766333
-112.757 38.233337 16.742332
-112.66567 38.236668 16.750334
-112.56674 38.243248 16.74575
-112.47375 38.244499 16.7535
-112.35625 38.251499 16.754499
-112.233 38.258999 16.744335
-112.14101 38.25 16.748667
-112.0525 38.261002 16.74575
-111.96633 38.265671 16.736668
-111.85625 38.266502 16.736
-111.791 38.277 16.785999
-105.492 38.299 16.799
-109.31 38.358002 16.734001
-109.23275 38.363251 16.754749
-109.12834 38.366669 16.747334
-109.0395 38.378998 16.745501
-108.835 38.391998 16.754999
-105.44725 38.310001 16.746
-105.34 38.314339 16.755335
-105.24501 38.317497 16.751251
-105.183 38.312 16.743
-116.839 38.434998 16.7435
-109.325 38.4935 16.741501
-109.003 38.453999 16.726999
-108.93201 38.447998 16.738499
-108.8455 38.445999 16.744999
-108.7825 38.442497 16.735001
-108.67534 38.444332 16.750334
-108.571 38.463001 16.728001
-108.46133 38.457668 16.747002
-108.3625 38.48 16.753
-108.268 38.459251 16.74725
-108.159 38.463406 16.751799
-108.0346 38.465603 16.747602
-107.933 38.462002 16.74675
-107.83934 38.490334 16.743334
-107.74167 38.491001 16.747334
-107.64934 38.474003 16.757
-107.576 38.471001 16.773001
-107.46049 38.473503 16.769501
-107.342 38.479 16.775
-107.2 38.487999 16.773001
-106.6055 38.456001 16.7395
-106.52834 38.469666 16.758667
-106.45834 38.467335 16.741667
-106.359 38.4725 16.751251
-106.243 38.479 16.743
-106.14976 38.474747 16.745499
-106.0472 38.477802 16.753799
-105.94201 38.481335 16.746666
-105.85467 38.483334 16.754667
-105.7495 38.487999 16.76075
-105.63133 38.489666 16.739002
-105.53075 38.446251 16.735001
-107.949 38.501999 16.780001
-107.614 38.507999 16.766001
-107.541 38.501999 16.734001
-107.4575 38.5075 16.731499
-107.3615 38.519001 16.7535
-107.25925 38.513752 16.742001
-107.13367 38.522667 16.743336
-107.03833 38.523335 16.758667
-106.93925 38.518749 16.749001
-106.83434 38.530334 16.746334
-106.73633 38.532665 16.751667
-106.64067 38.532333 16.759001
-105.05733 38.515335 16.740334
-104.9468 38.526402 16.755001
-104.84134 38.523003 16.748333
-104.7585 38.531502 16.749001
-104.67267 38.537334 16.747002
-104.57434 38.543335 16.761002
-104.45961 38.543003 16.749601
-104.35067 38.545334 16.745335
-104.26534 38.547333 16.753332
-104.1562 38.552002 16.7484
-104.041 38.556335 16.750334
-103.93875 38.56575 16.752251
-103.84133 38.566002 16.754333
-103.7565 38.57 16.757
-103.69 38.570999 16.719999
-103.56801 38.580254 16.752499
-103.46167 38.582336 16.748001
-103.341 38.585003 16.7488
-103.23034 38.592331 16.746
-103.153 38.593002 16.737
-102.993 38.592999 16.754999
-102.896 38.598 16.763
-102.8 38.598999 16.768999
-116.843 38.603001 16.745001
-109.335 38.632 16.75
-108.952 38.665001 16.754999
-108.832 38.675499 16.755501
-108.718 38.692001 16.759001
-108.627 38.694 16.768999
-108.557 38.624001 16.729
-107.953 38.698002 16.77
-107.767 38.686001 16.767
-107.111 38.689999 16.764999
-106.645 38.676998 16.74
-103.128 38.601002 16.792
-103.062 38.602501 16.74675
-102.9405 38.606998 16.766499
-102.847 38.60725 16.740499
-102.729 38.618 16.741501
-102.66067 38.611336 16.76
-102.572 38.616001 16.775999
-102.45599 38.6245 16.774
-102.361 38.625999 16.782501
-102.249 38.622501 16.743999
-102.15326 38.632999 16.755499
-102.03634 38.639999 16.740334
-101.951 38.636669 16.748669
-101.84833 38.640667 16.731335
-101.7415 38.649502 16.761499
-101.62533 38.652 16.769333
-101.569 38.650002 16.709
-116.848 38.748001 16.749001
-109.339 38.769997 16.761501
-108.87067 38.747002 16.758667
-108.782 38.787998 16.761999
-108.65767 38.756336 16.759335
-108.55051 38.740501 16.7635
-108.462 38.727501 16.7675
-108.37267 38.735001 16.766666
-108.2615 38.748001 16.768
-108.15649 38.752502 16.776501
-108.0605 38.7365 16.7745
-107.94434 38.749001 16.768333
-107.845 38.748001 16.776001
-107.7715 38.764503 16.776001
-107.65033 38.752335 16.777332
-107.548 38.779999 16.780001
-107.438 38.736668 16.754002
-107.3485 38.745499 16.782501
-107.2545 38.767502 16.779999
-107.165 38.750999 16.781
-107.052 38.737999 16.777
-106.95367 38.754333 16.781334
-106.832 38.773003 16.785
-106.737 38.775002 16.7925
-106.66 38.787998 16.785
-109.337 38.806999 16.704
-108.84 38.859497 16.764999
-108.7455 38.850502 16.762001
-108.668 38.873001 16.764999
-108.54867 38.839336 16.766335
-108.4385 38.827003 16.776501
-108.3365 38.8545 16.7735
-108.2515 38.829498 16.734501
-108.14101 38.839001 16.778999
-108.03201 38.847336 16.779667
-107.943 38.851501 16.775
-107.8475 38.856003 16.783001
-107.752 38.8535 16.778999
-107.654 38.850502 16.779499
-107.558 38.842499 16.781
-107.467 38.858334 16.778
-107.32851 38.834499 16.785
-107.25366 38.865669 16.778999
-107.147 38.834999 16.7775
-107.05767 38.846336 16.783335
-106.9555 38.849998 16.788502
-106.857 38.870499 16.785999
-106.766 38.855 16.785
-106.6735 38.846001 16.782
-116.855 38.900002 16.750999
-109.34467 38.935001 16.765001
-108.841 38.971001 16.771
-108.7555 38.913002 16.761002
-108.6295 38.946999 16.776501
-108.55634 38.977001 16.766335
-108.44466 38.950005 16.778999
-108.347 38.927498 16.779999
-108.265 38.9715 16.769001
-108.146 38.949001 16.780001
-108.0755 38.914001 16.772499
-107.9645 38.959999 16.783001
-107.85234 38.939003 16.775333
-107.7365 38.927502 16.774
-107.6285 38.968002 16.7705
-107.543 38.954002 16.783667
-107.457 38.984001 16.780001
-107.35433 38.945999 16.785334
-107.2515 38.959999 16.7845
-107.165 38.942001 16.782001
-107.04767 38.958336 16.786001
-106.93401 38.9375 16.7845
-106.834 38.9655 16.788502
-106.743 38.949501 16.790001
-106.677 38.9445 16.777
-116.866 39.077999 16.775
-108.821 39.056 16.766001
-108.75633 39.055336 16.77
-108.6555 39.032997 16.7745
-108.539 39.037998 16.766001
-108.4675 39.056 16.769501
-108.35934 39.057671 16.780668
-108.249 39.062 16.739
-108.14799 39.054501 16.773499
-108.0495 39.053001 16.781
-107.952 39.038002 16.778999
-107.843 39.047333 16.778334
-107.75 39.039001 16.778667
-107.65649 39.066002 16.7845
-107.561 39.061501 16.782
-107.4695 39.045998 16.7425
-107.34868 39.037666 16.779667
-107.233 39.045998 16.789001
-107.118 39.053497 16.788502
-107.0485 39.0555 16.7815
-106.95551 39.049999 16.7915
-106.86967 39.049 16.789
-106.7715 39.042999 16.788
-106.695 39.060001 16.792999
-116.862 39.123001 16.738001
-109.35301 39.125336 16.755001
-108.747 39.178001 16.764
