# .PCD v0.7 - Point Cloud Data file format
VERSION 0.7
FIELDS x y z
SIZE 4 4 4
TYPE F F F
COUNT 1 1 1
WIDTH 1804
HEIGHT 1
VIEWPOINT 0 0 0 1 0 0 0
POINTS 1804
DATA ascii
-112.493 38.880001 21.913
-112.492 38.882 21.839001
-112.493 38.898998 21.782
-112.294 38.984001 21.657
-112.245 38.998001 21.870001
-112.242 39.004002 21.797001
-112.43 38.866001 19.66
-112.469 38.910999 19.662001
-112.374 38.907001 19.66
-112.287 38.895 19.662001
-112.242 38.922001 19.658001
-112.407 38.952999 19.66
-112.359 38.987999 19.662001
-112.32 38.944 19.662001
-112.269 38.98 19.660999
-112.448 38.997002 19.666
-112.442 38.473999 19.339001
-112.358 38.458 19.339001
-112.387 38.314999 21.466999
-112.256 38.298 21.132
-112.447 38.289001 21.094
-112.356 38.276001 21.094
-112.221 38.283001 21.094
-112.389 38.325001 21.093
-112.301 38.311001 21.098
-112.255 38.333 21.091999
-112.342 38.362999 21.103001
-112.467 38.241001 19.941
-112.461 38.227001 20
-112.425 38.242001 19.841999
-112.381 38.240002 19.813999
-112.376 38.241001 19.886
-112.221 38.233002 19.997
-112.432 38.245998 19.775
-112.417 38.243 19.913
-112.411 38.257999 19.999001
-112.381 38.252998 19.750999
-112.364 38.247002 19.955999
-112.331 38.251999 19.792
-112.326 38.243 19.854
-112.322 38.25 19.936001
-112.315 38.252998 20.004999
-112.287 38.243999 19.756001
-112.281 38.252998 19.837
-112.274 38.249001 19.900999
-112.265 38.257 19.978001
-112.232 38.25 19.801001
-112.229 38.251999 19.875999
-112.227 38.25 19.947001
-112.451 38.240002 19.478001
-112.442 38.254002 19.559999
-112.438 38.245998 19.625999
-112.434 38.255001 19.709
-112.398 38.250999 19.531
-112.398 38.247002 19.605
-112.388 38.259998 19.687
-112.358 38.249001 19.507
-112.349 38.245998 19.572001
-112.342 38.258999 19.659
-112.342 38.249001 19.724001
-112.31 38.25 19.479
-112.306 38.255001 19.559
-112.3 38.251999 19.624001
-112.288 38.258999 19.700001
-112.258 38.256001 19.528
-112.251 38.249001 19.591
-112.246 38.259998 19.674
-112.243 38.245998 19.731001
-112.213 38.259998 19.504999
-112.209 38.255001 19.570999
-112.198 38.251999 19.632999
-112.318 38.237999 19.393999
-112.447 38.248001 19.332001
-112.443 38.251999 19.408001
-112.443 38.292999 19.302
-112.407 38.250999 19.385
-112.403 38.243999 19.452
-112.399 38.280998 19.337
-112.396 38.286999 19.264
-112.36 38.252998 19.436001
-112.36 38.25 19.356001
-112.355 38.284 19.309999
-112.319 38.266998 19.35
-112.312 38.291 19.296
-112.271 38.252998 19.382999
-112.269 38.293999 19.271
-112.266 38.257 19.459
-112.262 38.293999 19.34
-112.226 38.252998 19.356001
-112.223 38.296001 19.323
-112.216 38.259998 19.431
-112.44 38.300999 19.236
-112.357 38.299 19.254999
-112.343 38.348999 19.221001
-112.223 38.299999 19.249001
-112.283 38.404999 19.313999
-112.241 38.418999 19.304001
-112.678 39.852001 19.68
-112.591 39.833 19.679001
-112.805 39.909 19.674
-112.714 39.909 19.684999
-112.631 39.876999 19.673
-112.538 39.869999 19.681
-112.661 39.937 19.676001
-112.566 39.931999 19.684
-112.784 40.004002 19.677999
-112.693 39.981998 19.67
-112.603 39.98 19.681999
-112.552 40.015999 19.683001
-112.645 40.021 19.677
-112.585 40.060001 19.673
-112.771 40.078999 19.676001
-112.738 39.582001 19.674999
-112.648 39.570999 19.674
-112.561 39.556999 19.672001
-112.773 39.637001 19.679001
-112.687 39.619999 19.677999
-112.596 39.613998 19.681999
-112.725 39.668999 19.68
-112.629 39.662998 19.683001
-112.536 39.650002 19.676001
-112.75 39.737999 19.686001
-112.662 39.710999 19.677999
-112.615 39.742001 19.679001
-112.576 39.696999 19.68
-112.703 39.757 19.679001
-112.554 39.784 19.677999
-112.74 39.805 19.674999
-112.643 39.807999 19.688999
-112.527 39.418999 21.743
-112.711 39.435001 21.879999
-112.708 39.459 21.82
-112.531 39.431999 21.68
-112.762 39.276001 19.67
-112.668 39.269001 19.665001
-112.613 39.303001 19.662001
-112.525 39.306 19.68
-112.741 39.355 19.665001
-112.7 39.319 19.669001
-112.652 39.355999 19.674
-112.562 39.345001 19.67
-112.784 39.396999 19.667999
-112.69 39.393002 19.667
-112.593 39.395 19.67
-112.72 39.455002 19.679001
-112.631 39.433998 19.667
-112.578 39.477001 19.671
-112.541 39.432999 19.672001
-112.761 39.487999 19.671
-112.708 39.525002 19.671
-112.669 39.486 19.676001
-112.608 39.535 19.68
-112.639 39.053001 21.899
-112.504 39.043999 21.641001
-112.527 39.181 21.65
-112.637 38.993999 19.66
-112.727 39.014999 19.667999
-112.759 39.056 19.655001
-112.707 39.098999 19.666
-112.667 39.051998 19.663
-112.622 39.080002 19.663
-112.529 39.068001 19.659
-112.745 39.141998 19.663
-112.653 39.133999 19.663
-112.775 39.199001 19.671
-112.684 39.186001 19.665001
-112.641 39.208 19.659
-112.598 39.172001 19.666
-112.548 39.202 19.664
-112.514 39.157001 19.67
-112.724 39.223999 19.660999
-112.578 39.254002 19.659
-112.657 38.764 21.827
-112.655 38.751999 21.889999
-112.653 38.771999 21.757999
-112.61 38.766998 21.723
-112.558 38.813 21.811001
-112.558 38.799999 21.722
-112.597 38.837002 21.715
-112.547 38.841 21.681999
-112.76 38.922001 21.763
-112.756 38.936001 21.851999
-112.623 38.921001 21.743999
-112.621 38.903 21.799
-112.522 38.984001 21.666
-112.711 38.872002 19.657
-112.614 38.868999 19.657
-112.517 38.875 19.659
-112.739 38.933998 19.666
-112.652 38.91 19.657
-112.561 38.91 19.66
-112.691 38.962002 19.663
-112.54 38.993999 19.660999
-112.504 38.953999 19.663
-112.719 38.452 21.76
-112.749 38.501999 21.837
-112.658 38.506001 21.775
-112.614 38.511002 21.826
-112.657 38.513 21.858999
-112.654 38.556 21.752001
-112.653 38.561001 21.681999
-112.611 38.536999 21.778
-112.604 38.535 21.924999
-112.676 38.639 21.858
-112.634 38.637001 21.674999
-112.615 38.518002 21.607
-112.672 38.459999 19.346001
-112.573 38.467999 19.35
-112.721 38.431999 21.813999
-112.715 38.432999 21.888
-112.717 38.271999 21.115
-112.491 38.275002 21.111
-112.625 38.306 21.164
-112.569 38.362 21.108999
-112.676 38.276001 21.091999
-112.585 38.264999 21.091999
-112.703 38.337002 21.098
-112.619 38.317001 21.097
-112.535 38.299999 21.094999
-112.479 38.344002 21.1
-112.742 38.226002 20.016001
-112.686 38.255001 20.014
-112.741 38.233002 19.798
-112.739 38.231998 19.945999
-112.735 38.238998 19.872999
-112.696 38.236 19.924
-112.657 38.238998 19.753
-112.654 38.236 19.975
-112.616 38.236 19.799999
-112.611 38.234001 19.870001
-112.606 38.231998 19.941999
-112.568 38.237999 19.771999
-112.566 38.236 19.922001
-112.526 38.234001 19.82
-112.517 38.230999 19.886
-112.511 38.242001 19.972
-112.474 38.240002 19.872
-112.697 38.243999 19.858
-112.696 38.243999 19.781
-112.65 38.248001 19.909
-112.649 38.244999 19.827999
-112.564 38.243 19.85
-112.556 38.245998 20.002001
-112.526 38.244999 19.754999
-112.472 38.255001 19.809
-112.744 38.240002 19.736
-112.74 38.240002 19.658001
-112.702 38.234001 19.482
-112.702 38.238998 19.632
-112.664 38.241001 19.465
-112.659 38.241001 19.681
-112.658 38.238998 19.528999
-112.655 38.242001 19.605
-112.618 38.240002 19.507
-112.611 38.240002 19.726
-112.576 38.238998 19.476999
-112.574 38.237 19.698
-112.572 38.242001 19.627001
-112.531 38.238998 19.599001
-112.487 38.241001 19.497999
-112.741 38.243999 19.591
-112.702 38.243 19.563999
-112.694 38.243999 19.704
-112.618 38.243999 19.584999
-112.611 38.244999 19.653999
-112.569 38.245998 19.552999
-112.533 38.243999 19.531
-112.524 38.243 19.674999
-112.487 38.245998 19.58
-112.486 38.249001 19.659
-112.48 38.243999 19.725
-112.714 38.238998 19.355
-112.71 38.230999 19.414
-112.663 38.242001 19.393999
-112.622 38.242001 19.367001
-112.617 38.238998 19.431999
-112.58 38.240002 19.41
-112.532 38.238998 19.375999
-112.496 38.237999 19.354
-112.493 38.241001 19.429001
-112.71 38.280998 19.257
-112.704 38.278999 19.319
-112.664 38.279999 19.292
-112.66 38.257 19.334999
-112.616 38.283001 19.263
-112.616 38.282001 19.334
-112.575 38.249001 19.341
-112.568 38.284 19.301001
-112.532 38.244999 19.455999
-112.529 38.279999 19.343
-112.528 38.286999 19.278
-112.482 38.290001 19.249001
-112.48 38.292 19.323
-112.664 38.297001 19.240999
-112.571 38.301998 19.25
-112.505 38.368999 19.274
-113.065 40.261002 21.857
-112.854 40.092999 19.677
-112.827 39.824001 19.679001
-112.865 39.868999 19.674999
-112.896 39.918999 19.674999
-112.844 39.952999 19.673
-112.881 39.998001 19.671
-112.908 40.056 19.677
-112.817 40.049 19.676001
-112.886 39.557999 19.674999
-112.799 39.541 19.676001
-112.862 39.653999 19.677
-112.899 39.695999 19.673
-112.848 39.737 19.68
-112.878 39.786999 19.673
-113.04 39.549999 19.336
-113.051 39.293999 21.792
-113.053 39.48 21.915001
-113.046 39.491001 21.846001
-112.853 39.280998 19.67
-112.831 39.370998 19.672001
-112.797 39.319 19.667
-112.816 39.458 19.677
-113.052 39.325001 19.333
-113.024 39.426998 19.343
-112.842 39.033001 21.700001
-112.84 39.016998 21.839001
-112.831 39.022999 21.917999
-112.878 39.057999 21.908001
-113.029 39.216999 21.854
-112.809 38.987 21.631001
-112.845 39.023998 21.610001
-112.795 39.060001 21.621
-112.817 39.014 19.655001
-112.856 39.058998 19.658001
-112.794 39.101002 19.655001
-112.883 39.119999 19.667999
-112.837 39.140999 19.659
-112.874 39.189999 19.663
-112.814 39.228001 19.66
-113.026 38.993999 19.351
-113.015 39.068001 19.346001
-113.046 39.126999 19.35
-113.035 39.193001 19.334999
-112.807 38.950001 21.825001
-112.795 38.966 21.909
-112.845 38.860001 19.659
-112.8 38.884998 19.658001
-112.887 38.894001 19.653999
-112.836 38.93 19.653999
-112.866 38.983002 19.657
-112.776 38.976002 19.66
-113.021 38.783001 19.351
-113.008 38.855 19.346001
-112.806 38.459 21.754999
-112.796 38.499001 21.715
-112.757 38.494999 21.76
-113.003 38.435001 19.336
-112.769 38.452 19.341999
-112.855 38.472 19.35
-113.024 38.558998 19.337999
-113.002 38.646 19.341
-112.818 38.417 21.792999
-112.766 38.422001 21.836
-112.957 38.262001 21.113001
-113.008 38.275002 21.083
-112.924 38.261002 20.860001
-112.915 38.273998 21.023001
-112.913 38.287998 20.959999
-112.908 38.276001 21.094
-112.873 38.287998 20.856001
-112.869 38.290001 20.931
-112.812 38.259998 21.09
-112.944 38.327 21.097
-112.853 38.303001 21.087999
-112.802 38.344002 21.098
-112.763 38.300999 21.103001
-112.934 38.259998 20.632
-112.934 38.255001 20.784
-112.933 38.269001 20.721001
-112.89 38.287998 20.636999
-112.882 38.285999 20.705
-112.875 38.285 20.775999
-112.928 38.306999 20.598
-112.936 38.271 20.414
-112.931 38.292999 20.356001
-112.894 38.286999 20.402
-112.894 38.279999 20.32
-112.89 38.276001 20.542
-112.889 38.286999 20.476999
-112.933 38.306999 20.525999
-112.953 38.233002 20.011999
-112.864 38.223999 20.014999
-112.941 38.259998 20.104
-112.939 38.276001 20.195
-112.899 38.284 20.101999
-112.894 38.286999 20.174999
-113.009 38.224998 19.759001
-113.008 38.223999 19.827999
-113.005 38.223999 19.893999
-112.997 38.220001 19.955
-112.963 38.222 19.792999
-112.959 38.219002 19.931
-112.955 38.231998 19.868999
-112.919 38.227001 19.768999
-112.918 38.223 19.834999
-112.91 38.224998 19.976
-112.909 38.228001 19.903999
-112.871 38.221001 19.944
-112.87 38.228001 19.878
-112.867 38.228001 19.802999
-112.829 38.236 19.787001
-112.825 38.234001 19.855
-112.824 38.238998 20.007
-112.823 38.229 19.921
-112.787 38.228001 19.896999
-112.783 38.237999 19.832001
-112.782 38.233002 19.752001
-112.778 38.234001 19.973
-113.017 38.224998 19.698
-112.987 38.233002 19.48
-112.982 38.234001 19.545
-112.974 38.226002 19.599001
-112.972 38.219002 19.726999
-112.971 38.23 19.667999
-112.934 38.234001 19.511
-112.933 38.231998 19.576
-112.929 38.224998 19.632999
-112.918 38.230999 19.701
-112.892 38.234001 19.478001
-112.884 38.231998 19.539
-112.879 38.230999 19.601999
-112.878 38.237999 19.677999
-112.874 38.227001 19.735001
-112.844 38.227001 19.504
-112.838 38.233002 19.576
-112.83 38.23 19.636
-112.829 38.230999 19.709999
-112.795 38.233002 19.473
-112.791 38.233002 19.542999
-112.79 38.240002 19.622
-112.788 38.231998 19.683001
-112.751 38.238998 19.523001
-112.996 38.230999 19.341999
-112.988 38.231998 19.409
-112.952 38.223 19.375
-112.94 38.231998 19.441999
-112.899 38.229 19.413
-112.899 38.235001 19.35
-112.853 38.229 19.375999
-112.842 38.236 19.443001
-112.806 38.235001 19.348
-112.804 38.234001 19.415001
-112.753 38.238998 19.454
-112.752 38.241001 19.384001
-112.993 38.271999 19.309
-112.992 38.278999 19.243
-112.945 38.265999 19.271999
-112.942 38.273998 19.35
-112.904 38.277 19.257
-112.897 38.271 19.315001
-112.852 38.271999 19.285
-112.85 38.269001 19.348
-112.809 38.276001 19.257999
-112.798 38.279999 19.320999
-112.759 38.277 19.290001
-112.756 38.266998 19.344999
-112.939 38.324001 19.254999
-112.847 38.306 19.247
-112.755 38.298 19.242001
-113.188 40.127998 21.733999
-113.188 40.143002 21.899
-113.358 40.229 21.816999
-113.355 40.228001 21.657
-113.227 40.181999 21.82
-113.223 40.188 21.674
-113.217 40.213001 21.771999
-113.353 40.241001 21.749001
-113.348 40.243999 21.899
-113.309 40.234001 21.709
-113.306 40.233002 21.782
-113.304 40.238998 21.862
-113.261 40.242001 21.76
-113.26 40.241001 21.681
-113.258 40.238998 21.829
-113.253 40.234001 21.895
-113.166 40.240002 21.76
-113.119 40.243999 21.804001
-113.116 40.248001 21.881001
-113.115 40.247002 21.73
-113.112 40.272999 21.681999
-113.185 40.176998 21.636
-113.219 40.231998 21.643999
-113.171 40.228001 21.604
-113.31 40.243999 21.642
-113.261 40.241001 21.608
-113.337 39.985001 19.761
-113.273 39.888 19.622999
-113.274 39.916 19.58
-113.257 39.550999 19.562
-113.255 39.581001 19.521
-113.255 39.599998 19.469
-113.267 39.729 19.534
-113.263 39.716 19.587999
-113.268 39.757 19.492001
-113.189 39.523998 19.347
-113.223 39.570999 19.346001
-113.13 39.556999 19.334999
-113.255 39.615002 19.34
-113.254 39.606998 19.403999
-113.162 39.617001 19.35
-113.116 39.638 19.337
-113.08 39.598 19.343
-113.207 39.641998 19.336
-113.271 39.752998 19.417
-113.095 39.498001 21.815001
-113.094 39.493999 21.660999
-113.091 39.493999 21.879999
-113.09 39.505001 21.745001
-113.251 39.305 20.841
-113.245 39.305 21.056999
-113.246 39.333 20.941
-113.243 39.333 21.01
-113.252 39.474998 21.091999
-113.253 39.501999 21.049
-113.253 39.505001 20.981001
-113.32 39.245998 19.723
-113.252 39.384998 19.535
-113.251 39.396 19.615999
-113.248 39.416 19.49
-113.161 39.252998 19.337999
-113.066 39.250999 19.34
-113.242 39.272999 19.344
-113.24 39.285 19.422001
-113.19 39.312 19.346001
-113.099 39.298 19.337999
-113.225 39.351002 19.339001
-113.136 39.348 19.343
-113.172 39.396 19.347
-113.085 39.377998 19.337
-113.25 39.436001 19.372
-113.248 39.442001 19.448
-113.205 39.443001 19.344999
-113.151 39.476002 19.34
-113.112 39.438 19.346001
-113.068 39.462002 19.34
-113.233 39.501999 19.354
-113.099 39.515999 19.346001
-113.232 39.150002 21.113001
-113.225 38.981998 20.929001
-113.228 38.999001 20.877001
-113.236 39.129002 21.017
-113.236 39.169998 20.910999
-113.234 39.166 20.981001
-113.228 38.994999 20.722
-113.227 38.994999 20.798
-113.23 39.021 20.676001
-113.229 39.025002 20.607
-113.238 39.151001 20.816
-113.237 39.172001 20.764
-113.235 39.201 20.719999
-113.23 39.016998 20.524
-113.285 38.973 19.719999
-113.235 39.035 19.601999
-113.234 39.063999 19.556999
-113.23 39.076 19.493999
-113.29 39.188999 19.722
-113.239 39.240002 19.518999
-113.238 39.243 19.594
-113.211 39.008999 19.341999
-113.154 39.047001 19.341
-113.121 39.001999 19.347
-113.061 39.042 19.348
-113.231 39.087002 19.431
-113.188 39.101002 19.344999
-113.1 39.089001 19.347
-113.233 39.112999 19.388
-113.23 39.137001 19.339001
-113.141 39.127998 19.343
-113.169 39.192001 19.35
-113.075 39.182999 19.351999
-113.247 39.233002 19.447001
-113.205 39.230999 19.344
-113.121 39.213001 19.341999
-113.168 38.799999 21.66
-113.226 38.952 21.112
-113.22 38.778999 20.851999
-113.217 38.762001 20.9
-113.217 38.733002 21.087
-113.215 38.769001 21.049
-113.215 38.785999 20.997999
-113.227 38.953999 21.045
-113.227 38.952 20.972
-113.222 38.806999 20.672001
-113.22 38.813 20.819
-113.219 38.818001 20.754
-113.22 38.860001 20.58
-113.22 38.853001 20.646
-113.214 38.714001 20.347
-113.223 38.862 20.431
-113.222 38.846001 20.49
-113.216 38.702 20.261999
-113.213 38.728001 19.5
-113.222 38.872002 19.577
-113.224 38.896 19.531
-113.222 38.909 19.468
-113.133 38.700001 19.346001
-113.218 38.73 19.360001
-113.212 38.736 19.434999
-113.173 38.747002 19.348
-113.208 38.799 19.347
-113.152 38.831001 19.344
-113.114 38.785 19.346001
-113.193 38.872002 19.337999
-113.103 38.865002 19.348
-113.227 38.898998 19.386
-113.226 38.938 19.354
-113.133 38.928001 19.354
-113.087 38.941002 19.339001
-113.168 38.970001 19.344
-113.153 38.452 21.361
-113.197 38.436001 20.832001
-113.197 38.433998 21.056
-113.196 38.444 20.988001
-113.196 38.457001 20.929001
-113.208 38.583 20.848
-113.205 38.608002 20.945999
-113.205 38.580002 21.063
-113.204 38.606998 21.017
-113.199 38.453999 20.705999
-113.197 38.466999 20.645
-113.206 38.611 20.804001
-113.211 38.662998 20.580999
-113.209 38.633999 20.618999
-113.208 38.632999 20.757
-113.208 38.632 20.686001
-113.201 38.439999 20.546
-113.206 38.495998 20.329
-113.204 38.487999 20.392
-113.204 38.467999 20.507999
-113.202 38.493 20.464001
-113.205 38.534 20.301001
-113.214 38.687 20.393999
-113.211 38.674999 20.452
-113.209 38.687 20.535999
-113.206 38.539001 20.235001
-113.206 38.540001 20.162001
-113.202 38.502998 19.545
-113.205 38.513 19.49
-113.268 38.601002 19.695
-113.216 38.687 19.532
-113.21 38.686001 19.596001
-113.088 38.452 19.343
-113.176 38.466999 19.351
-113.037 38.487999 19.344
-113.21 38.540001 19.379
-113.205 38.546001 19.452
-113.165 38.536999 19.341999
-113.069 38.534 19.341999
-113.202 38.578999 19.341
-113.154 38.610001 19.341999
-113.058 38.613998 19.348
-113.191 38.655998 19.34
-113.043 38.689999 19.344999
-113.147 38.401001 21.618
-113.153 38.222 21.118
-113.141 38.261002 21.309
-113.165 38.213001 20.959
-113.161 38.220001 20.886
-113.159 38.215 21.037001
-113.121 38.212002 20.854
-113.115 38.207001 21.080999
-113.115 38.216999 21.011999
-113.114 38.217999 20.933001
-113.076 38.216999 20.910999
-113.071 38.223 20.832001
-113.069 38.212002 20.976
-113.064 38.203999 21.042
-113.188 38.291 20.976
-113.187 38.280998 21.042999
-113.188 38.307999 20.92
-113.165 38.214001 20.650999
-113.164 38.216 20.729
-113.16 38.216 20.573999
-113.158 38.221001 20.806
-113.123 38.215 20.780001
-113.122 38.223999 20.558001
-113.118 38.216999 20.701
-113.117 38.219002 20.624001
-113.081 38.214001 20.676001
-113.079 38.216999 20.601
-113.074 38.219002 20.753
-113.036 38.209 20.563999
-113.034 38.209999 20.797001
-113.033 38.223 20.731001
-113.03 38.220001 20.648001
-113.191 38.269001 20.726
-113.19 38.296001 20.606001
-113.19 38.277 20.808001
-113.188 38.303001 20.686001
-113.2 38.418999 20.74
-113.166 38.215 20.285
-113.166 38.214001 20.429001
-113.164 38.216 20.357
-113.162 38.217999 20.503
-113.122 38.220001 20.332001
-113.119 38.223 20.481001
-113.118 38.216999 20.398001
-113.08 38.223 20.381001
-113.077 38.221001 20.304001
-113.075 38.23 20.457001
-113.073 38.226002 20.528999
-113.036 38.223 20.503
-113.035 38.214001 20.341
-113.035 38.216 20.417
-113.192 38.289001 20.452
-113.191 38.275002 20.511
-113.195 38.300999 20.326
-113.194 38.308998 20.403999
-113.183 38.220001 20.021
-113.175 38.221001 20.155001
-113.175 38.222 20.084999
-113.172 38.220001 20.221001
-113.137 38.219002 20.056
-113.129 38.219002 20.120001
-113.127 38.209999 20.253
-113.123 38.222 20.190001
-113.086 38.223 20.094999
-113.086 38.220001 20.018999
-113.085 38.216999 20.16
-113.078 38.217999 20.225
-113.042 38.216999 20.055
-113.039 38.214001 20.268
-113.038 38.219002 20.200001
-113.034 38.223 20.128
-113.197 38.346001 20.235001
-113.195 38.314999 20.268999
-113.198 38.356998 20.108999
-113.198 38.380001 20.063
-113.197 38.359001 20.181
-113.196 38.422001 20.035
-113.192 38.234001 19.836
-113.19 38.221001 19.959
-113.189 38.23 19.899
-113.157 38.209999 19.787001
-113.148 38.223999 19.863001
-113.139 38.222 19.922001
-113.138 38.216999 19.985001
-113.104 38.228001 19.764999
-113.1 38.223 19.827999
-113.099 38.224998 19.896
-113.097 38.212002 19.950001
-113.063 38.228001 19.737
-113.06 38.224998 19.799
-113.053 38.213001 19.849001
-113.049 38.217999 19.993
-113.046 38.217999 19.917999
-113.211 38.209999 19.681
-113.169 38.217999 19.514999
-113.168 38.220001 19.589001
-113.162 38.216999 19.655001
-113.154 38.222 19.725
-113.127 38.223999 19.493
-113.12 38.216 19.552999
-113.119 38.214001 19.622999
-113.118 38.209999 19.688999
-113.081 38.217999 19.531
-113.08 38.226002 19.465
-113.07 38.23 19.604
-113.065 38.223 19.664
-113.03 38.224998 19.500999
-113.025 38.227001 19.57
-113.024 38.223999 19.634001
-113.255 38.269001 19.482
-113.252 38.247002 19.528
-113.25 38.256001 19.608
-113.248 38.255001 19.677
-113.213 38.255001 19.51
-113.206 38.250999 19.570999
-113.2 38.252998 19.643999
-113.182 38.213001 19.372999
-113.17 38.224998 19.448
-113.133 38.220001 19.347
-113.132 38.222 19.423
-113.089 38.238998 19.34
-113.084 38.222 19.389999
-113.045 38.214001 19.357
-113.037 38.230999 19.441
-113.216 38.255001 19.370001
-113.213 38.251999 19.437
-113.18 38.265999 19.216
-113.174 38.257 19.343
-113.173 38.264 19.278
-113.135 38.263 19.252001
-113.128 38.262001 19.316999
-113.085 38.264 19.291
-113.039 38.271 19.264
-113.032 38.272999 19.336
-113.077 38.297001 19.246
-113.2 38.354 19.392
-113.198 38.375 19.343
-113.616 39.629002 21.893
-113.577 39.623001 21.857
-113.576 39.626999 21.788
-113.573 39.630001 21.715
-113.535 39.625 21.681999
-113.531 39.615002 21.891001
-113.529 39.624001 21.747999
-113.586 39.618 21.563
-113.584 39.630001 21.424
-113.581 39.633999 21.500999
-113.58 39.626999 21.641001
-113.543 39.625999 21.392
-113.54 39.627998 21.466999
-113.537 39.612999 21.52
-113.534 39.619999 21.601999
-113.593 39.638 21.129999
-113.593 39.617001 21.34
-113.59 39.636002 21.278999
-113.589 39.630001 21.195
-113.55 39.629002 21.169001
-113.546 39.625 21.24
-113.539 39.630001 21.316999
-113.549 39.629002 21.091999
-113.591 39.252998 19.712999
-113.417 39.248001 19.725
-113.489 38.166 19.681999
-113.536 38.235001 19.576
-113.528 38.213001 19.690001
-113.538 38.247002 19.518999
-113.523 38.252998 19.653999
-113.49 38.248001 19.485001
-113.485 38.247002 19.552999
-113.483 38.247002 19.622999
-113.477 38.248001 19.688
-113.443 38.248001 19.524
-113.442 38.266998 19.472
-113.435 38.249001 19.59
-113.428 38.252998 19.658001
-113.392 38.251999 19.562
-113.392 38.254002 19.495001
-113.39 38.248001 19.625999
-113.38 38.249001 19.688999
-113.35 38.27 19.482
-113.346 38.251999 19.528
-113.34 38.252998 19.596001
-113.339 38.257 19.671
-113.299 38.261002 19.504999
-113.299 38.254002 19.568001
-113.293 38.254002 19.635
-113.553 38.110001 19.67
-113.362 38.112 19.679001
-113.626 39.625999 21.674
-113.626 39.622002 21.745001
-113.621 39.619999 21.813999
-113.704 39.694 21.804001
-113.702 39.694 21.878
-113.659 39.667999 21.818001
-113.658 39.678001 21.753
-113.658 39.676998 21.903999
-113.7 39.695 21.726
-113.661 39.699001 21.702999
-113.636 39.624001 21.455
-113.632 39.631001 21.382
-113.631 39.623001 21.525
-113.626 39.625 21.6
-113.711 39.694 21.576
-113.707 39.692001 21.65
-113.663 39.683998 21.612
-113.663 39.676998 21.525999
-113.706 39.703999 21.507
-113.705 39.705002 21.427999
-113.667 39.702 21.400999
-113.666 39.695 21.469999
-113.643 39.625 21.229
-113.641 39.632 21.157
-113.636 39.623001 21.296
-113.856 39.693001 21.299
-113.808 39.687 21.257999
-113.856 39.700001 21.231001
-113.801 39.723999 21.216
-113.762 39.703999 21.240999
-113.757 39.703999 21.312
-113.716 39.695 21.274
-113.714 39.701 21.355
-113.706 39.728001 21.226
-113.674 39.699001 21.174
-113.666 39.699001 21.243999
-113.666 39.695999 21.315001
-113.639 39.627998 21.077
-113.852 39.512001 19.32
-113.783 39.223 19.743
-113.642 39.243 19.738001
-113.738 39.243 19.733999
-113.643 39.250999 19.677
-113.627 38.875999 19.707001
-113.818 38.160999 19.684
-113.681 38.174 19.684
-113.583 38.178001 19.690001
-113.809 38.234001 19.681999
-113.808 38.242001 19.613001
-113.773 38.233002 19.509001
-113.767 38.196999 19.688999
-113.765 38.238998 19.583
-113.756 38.242001 19.653
-113.719 38.242001 19.556999
-113.718 38.240002 19.628
-113.714 38.231998 19.691
-113.677 38.240002 19.525999
-113.666 38.242001 19.671
-113.631 38.23 19.561001
-113.619 38.217999 19.684
-113.577 38.238998 19.607
-113.816 38.249001 19.481001
-113.809 38.245998 19.548
-113.721 38.243999 19.485001
-113.676 38.266998 19.483
-113.668 38.245998 19.601
-113.628 38.245998 19.500999
-113.621 38.245998 19.643
-113.584 38.264 19.492001
-113.577 38.248001 19.542999
-113.572 38.249001 19.686001
-113.785 38.110001 19.684999
-113.639 38.130001 19.679001
-114.125 39.688999 21.271
-114.079 39.694 21.315001
-114.037 39.682999 21.273001
-113.994 39.686001 21.245001
-113.95 39.682999 21.284
-113.901 39.679001 21.243999
-114.129 39.702999 21.214001
-114.084 39.696999 21.250999
-114.03 39.702 21.214001
-113.945 39.698002 21.222
-113.897 39.717999 21.205999
-114.128 39.493999 19.368
-113.944 39.494999 19.371
-113.984 39.230999 19.729
-114.107 38.117001 19.688999
-114.051 38.146 19.677999
-113.959 38.139999 19.683001
-113.912 38.171001 19.683001
-114.093 38.233002 19.517
-114.09 38.229 19.580999
-114.085 38.223 19.643
-114.047 38.237999 19.49
-114.044 38.210999 19.672001
-114.043 38.227001 19.547001
-114.042 38.233002 19.622
-114.005 38.23 19.521999
-113.995 38.231998 19.587999
-113.992 38.227001 19.652
-113.954 38.231998 19.487
-113.952 38.236 19.562
-113.951 38.229 19.624001
-113.948 38.209 19.674
-113.909 38.231998 19.528
-113.9 38.234001 19.667999
-113.899 38.242001 19.601999
-113.86 38.242001 19.577
-113.855 38.206001 19.681
-113.853 38.231998 19.634001
-113.997 38.264 19.483
-113.909 38.257999 19.485001
-113.862 38.243 19.509001
-114.014 38.106998 19.684999
-113.922 38.091999 19.68
-113.877 38.115002 19.677999
-114.259 39.689999 21.815001
-114.256 39.692001 21.665001
-114.256 39.693001 21.888
-114.254 39.691002 21.738001
-114.219 39.669998 21.687
-114.215 39.676998 21.915001
-114.212 39.681999 21.771999
-114.21 39.679001 21.84
-114.26 39.692001 21.445999
-114.222 39.673 21.399
-114.219 39.676998 21.474001
-114.216 39.669998 21.539
-114.213 39.682999 21.624001
-114.266 39.707001 21.391001
-114.26 39.698002 21.601999
-114.258 39.696999 21.525999
-114.425 39.681999 21.239
-114.327 39.676998 21.249001
-114.271 39.689999 21.224001
-114.229 39.685001 21.191
-114.227 39.674 21.252001
-114.222 39.672001 21.325001
-114.178 39.683998 21.304001
-114.178 39.681999 21.228001
-114.371 39.696999 21.218
-114.278 39.695999 21.16
-114.265 39.714001 21.323999
-114.405 39.477001 19.622999
-114.324 39.500999 19.374001
-114.23 39.488998 19.368999
-114.167 39.534 19.368999
-114.35 39.216999 19.732
-114.284 38.120998 19.677999
-114.197 38.115002 19.681
-114.37 38.146 19.691
-114.323 38.169998 19.686001
-114.378 38.215 19.483
-114.366 38.227001 19.559
-114.365 38.205002 19.68
-114.361 38.230999 19.632999
-114.327 38.219002 19.525999
-114.322 38.214001 19.589001
-114.313 38.215 19.653
-114.276 38.228001 19.5
-114.274 38.220001 19.562
-114.271 38.228001 19.639999
-114.268 38.210999 19.687
-114.23 38.242001 19.483
-114.229 38.229 19.539
-114.219 38.230999 19.674
-114.219 38.233002 19.604
-114.183 38.223999 19.500999
-114.183 38.224998 19.573
-114.178 38.226002 19.639999
-114.178 38.199001 19.681999
-114.141 38.237999 19.486
-114.135 38.224998 19.538
-114.133 38.227001 19.610001
-114.133 38.222 19.677
-114.385 38.216 19.417
-114.384 38.234001 19.358999
-114.351 38.223999 19.256001
-114.345 38.229 19.33
-114.334 38.223 19.389
-114.331 38.213001 19.451
-114.302 38.230999 19.231001
-114.296 38.221001 19.291
-114.292 38.223 19.365
-114.291 38.209 19.42
-114.338 38.098 19.691999
-114.244 38.097 19.695
-114.708 39.652 21.232
-114.663 39.675999 21.224001
-114.57 39.674 21.240999
-114.517 39.681999 21.214001
-114.469 39.673 21.254999
-114.475 39.560001 19.754
-114.568 39.471001 19.362
-114.702 39.497002 19.33
-114.471 39.494999 19.32
-114.643 39.203999 19.729
-114.595 39.207001 19.697001
-114.545 39.210999 19.736
-114.453 39.459 19.636
-114.469 38.925999 19.591
-114.419 38.950001 19.58
-114.457 39.139999 19.733
-114.436 38.624001 19.707001
-114.521 38.106998 19.684999
-114.655 38.176998 19.694
-114.567 38.139999 19.676001
-114.653 38.209 19.646999
-114.62 38.215 19.481001
-114.613 38.203999 19.621
-114.613 38.210999 19.551001
-114.608 38.196999 19.686001
-114.57 38.241001 19.481001
-114.57 38.219002 19.532
-114.561 38.214001 19.598
-114.554 38.207001 19.66
-114.52 38.215 19.497
-114.515 38.219002 19.575001
-114.513 38.206001 19.636
-114.504 38.195999 19.691
-114.476 38.23 19.488001
-114.467 38.220001 19.545
-114.46 38.215 19.610001
-114.457 38.215 19.683001
-114.422 38.215 19.511
-114.418 38.216 19.583
-114.41 38.216999 19.650999
-114.427 38.220001 19.447001
-114.405 38.227001 19.216
-114.396 38.224998 19.283001
-114.387 38.056 19.681999
-114.988 39.66 21.242001
-114.932 39.685001 21.223
-114.891 39.664001 21.24
-114.834 39.693001 21.226
-114.797 39.660999 21.233
-114.748 39.681999 21.219999
-114.894 39.455002 19.341999
-114.743 39.490002 19.348
-114.883 39.195999 19.738001
-114.841 39.202 19.639999
-114.733 39.221001 19.736
-114.902 38.186001 19.492001
-114.893 38.181 19.691999
-114.807 38.155998 19.687
-114.749 38.188 19.684999
-114.893 38.206001 19.572001
-114.89 38.195 19.629999
-114.851 38.195 19.604
-114.848 38.216 19.482
-114.845 38.213001 19.547001
-114.84 38.210999 19.687
-114.808 38.207001 19.516001
-114.799 38.207001 19.580999
-114.796 38.208 19.657
-114.76 38.207001 19.559
-114.759 38.209999 19.487
-114.752 38.209 19.629999
-114.714 38.226002 19.475
-114.709 38.216999 19.537001
-114.706 38.202999 19.597
-114.702 38.209999 19.68
-114.666 38.200001 19.572001
-114.665 38.222 19.516001
-114.8 38.249001 19.482
-114.677 38.075001 19.679001
-114.915 38.083 19.68
-115.231 39.654999 21.267
-115.177 39.658001 21.228001
-115.133 39.66 21.275
-115.132 39.674999 21.216999
-115.081 39.653999 21.231001
-115.037 39.668999 21.215
-115.13 39.459 19.354
-115.037 39.452 19.356001
-115.207 39.188 19.724001
-115.119 39.174 19.725
-114.972 39.198002 19.723
-115.176 38.111 19.684
-115.168 38.179001 19.68
-115.123 38.16 19.695
-115.083 38.187 19.49
-115.18 38.196999 19.500999
-115.172 38.194 19.632999
-115.172 38.199001 19.57
-115.135 38.202999 19.479
-115.131 38.196999 19.537001
-115.122 38.199001 19.6
-115.116 38.192001 19.655001
-115.077 38.202 19.57
-115.075 38.196999 19.629999
-115.065 38.202999 19.695
-115.039 38.207001 19.479
-115.032 38.198002 19.530001
-115.028 38.191002 19.589001
-115.027 38.195 19.66
-114.985 38.206001 19.504
-114.985 38.202 19.566999
-114.981 38.193001 19.624001
-114.975 38.196999 19.691999
-114.941 38.215 19.481001
-114.938 38.195 19.594999
-114.936 38.207001 19.535
-114.936 38.203999 19.672001
-115.048 38.066002 19.679001
-115.467 39.639999 21.257999
-115.414 39.644001 21.226999
-115.368 39.669998 21.221001
-115.324 39.641998 21.238001
-115.274 39.666 21.226999
-115.401 39.458 19.353001
-115.309 39.452999 19.344999
-115.271 39.453999 19.318001
-115.355 39.167999 19.726
-115.309 39.178001 19.629999
-115.469 38.113998 19.687
-115.378 38.098999 19.681
-115.278 38.101002 19.681999
-115.47 38.176998 19.534
-115.462 38.181999 19.605
-115.413 38.185001 19.65
-115.413 38.154999 19.691
-115.363 38.186001 19.615
-115.322 38.187 19.591999
-115.316 38.145 19.684999
-115.264 38.187 19.693001
-115.218 38.150002 19.690001
-115.215 38.181999 19.650999
-115.466 38.195 19.476
-115.452 38.191002 19.681
-115.418 38.193001 19.514999
-115.412 38.189999 19.58
-115.376 38.191002 19.486
-115.373 38.188999 19.555
-115.358 38.188999 19.690001
-115.323 38.191002 19.523001
-115.318 38.235001 19.490999
-115.315 38.189999 19.658001
-115.281 38.193001 19.497
-115.272 38.196999 19.566
-115.263 38.198002 19.632
-115.228 38.205002 19.473
-115.228 38.194 19.534
-115.222 38.200001 19.606001
-115.806 40.077 19.768
-115.714 40.073002 19.778999
-115.741 40.133999 19.780001
-115.739 39.629002 21.431999
-115.794 39.617001 21.306
-115.794 39.626999 21.239
-115.745 39.626999 21.360001
-115.745 39.613998 21.27
-115.702 39.629002 21.181
-115.701 39.624001 21.247999
-115.694 39.627998 21.325001
-115.74 39.645 21.219999
-115.648 39.657001 21.17
-115.645 39.646 21.233
-115.652 39.696999 19.761
-115.778 39.445 19.365999
-115.633 39.445999 19.348
-115.587 39.460999 19.337999
-115.536 39.446999 19.364
-115.626 39.181999 19.716
-115.623 39.412998 19.608
-115.621 38.990002 19.724001
-115.602 38.629002 19.714001
-115.61 38.870998 19.596001
-115.52 38.080002 19.684
-115.559 38.117001 19.674
-115.749 38.171001 19.490999
-115.743 38.144001 19.679001
-115.74 38.179001 19.568001
-115.736 38.181 19.639
-115.7 38.176998 19.540001
-115.698 38.188 19.476
-115.695 38.172001 19.603001
-115.686 38.179001 19.677
-115.649 38.182999 19.51
-115.648 38.181999 19.584
-115.647 38.146 19.688999
-115.646 38.183998 19.657
-115.605 38.176998 19.549
-115.597 38.18 19.621
-115.596 38.174 19.684999
-115.558 38.182999 19.524
-115.558 38.18 19.594
-115.551 38.183998 19.665001
-115.516 38.188 19.502001
-115.512 38.152 19.681
-115.505 38.182999 19.635
-115.608 38.192001 19.496
-115.555 38.214001 19.482
-115.506 38.188999 19.566999
-116.082 40.035999 19.771999
-115.997 40.021 19.767
-115.941 40.066002 19.774
-116.033 40.075001 19.777
-115.972 40.117001 19.774
-115.885 40.110001 19.778
-116.027 39.696999 19.761999
-115.89 39.709 19.767
-115.833 39.737 19.759001
-116.061 39.75 19.761
-115.921 39.768002 19.764999
-115.871 39.791 19.757999
-116.042 39.834999 19.759001
-115.952 39.825001 19.766001
-115.991 39.868999 19.76
-116.032 39.706001 19.701
-116.072 39.632999 21.224001
-116.07 39.616001 21.274
-116.032 39.619999 21.247999
-116.024 39.624001 21.318001
-115.981 39.610001 21.273001
-115.976 39.638 21.226
-115.936 39.623001 21.254
-115.89 39.617001 21.292999
-115.884 39.633999 21.23
-115.839 39.618999 21.259001
-116.042 39.431 19.743
-115.983 39.485001 19.757999
-115.93 39.500999 19.742001
-116.017 39.540001 19.754999
-115.968 39.562 19.747999
-116.051 39.602001 19.761
-116.002 39.631001 19.759001
-115.857 39.632999 19.752001
-115.894 39.436001 19.732
-115.89 39.493 19.709999
-115.92 39.558998 19.714001
-115.962 39.594002 19.695999
-115.996 39.664001 19.712999
-116.065 39.450001 19.322001
-116.011 39.457001 19.367001
-115.975 39.433998 19.320999
-115.921 39.463001 19.392
-115.835 39.439999 19.318001
-116.002 39.144001 19.738001
-116.002 39.374001 19.737
-115.953 39.405998 19.739
-116.055 39.155998 19.631001
-116.052 39.154999 19.705999
-116.001 39.153999 19.67
-116.001 39.192001 19.635
-115.856 39.157001 19.726999
-115.814 39.168999 19.639999
-116.065 39.331001 19.736
-116.036 38.963001 19.726999
-116.023 39.049 19.731001
-116.055 39.108002 19.735001
-115.984 38.068001 19.686001
-115.847 38.081001 19.684
-115.79 38.117001 19.683001
-116.025 38.161999 19.589001
-116.016 38.167 19.660999
-115.982 38.162998 19.486
-115.976 38.162998 19.631001
-115.975 38.146 19.688
-115.974 38.174999 19.568001
-115.938 38.172001 19.469999
-115.936 38.169998 19.540001
-115.926 38.167999 19.604
-115.919 38.176998 19.683001
-115.883 38.174999 19.507999
-115.882 38.172001 19.580999
-115.792 38.169998 19.591999
-115.792 38.174999 19.525999
-115.781 38.174999 19.663
-116.021 38.201 19.48
-116.284 40.057999 21.77
-116.361 40.125 21.896999
-116.361 40.124001 21.813
-116.32 40.125 21.791
-116.318 40.117001 21.856001
-116.282 40.083 21.872
-116.282 40.073002 21.709999
-116.231 40.109001 21.787001
-116.229 40.118999 21.719
-116.37 40.129002 21.67
-116.367 40.126999 21.743999
-116.315 40.126999 21.707001
-116.218 40.138 21.879999
-116.322 40.118 21.624001
-116.284 40.087002 21.645
-116.281 40.098999 21.579
-116.29 39.683998 21.233999
-116.117 39.714001 19.763
-116.141 39.784 19.775999
-116.178 39.821999 19.768999
-116.096 39.806 19.77
-116.128 39.858002 19.771
-116.128 39.868999 19.709999
-116.288 39.625 21.811001
-116.253 39.606998 21.766001
-116.251 39.610001 21.695
-116.246 39.605 21.832001
-116.245 39.605 21.909
-116.205 39.603001 21.804001
-116.202 39.606998 21.728001
-116.202 39.613998 21.889
-116.259 39.598999 21.478001
-116.253 39.612999 21.556999
-116.252 39.606998 21.412001
-116.249 39.605999 21.615
-116.213 39.608002 21.381001
-116.212 39.603001 21.584999
-116.207 39.606998 21.514
-116.207 39.604 21.441
-116.206 39.603001 21.650999
-116.261 39.599998 21.271
-116.259 39.598999 21.198
-116.253 39.610001 21.344
-116.213 39.605999 21.309999
-116.208 39.613998 21.243999
-116.167 39.624001 21.223
-116.166 39.604 21.268999
-116.124 39.605 21.304001
-116.119 39.616001 21.243999
-116.187 39.424 19.747999
-116.273 39.436001 19.74
-116.123 39.477001 19.757
-116.212 39.487 19.75
-116.165 39.507999 19.743
-116.079 39.494999 19.749001
-116.242 39.547001 19.754
-116.196 39.581001 19.76
-116.11 39.549999 19.747
-116.226 39.629002 19.754
-116.136 39.612999 19.752001
-116.172 39.662998 19.752001
-116.088 39.651001 19.757999
-116.2 39.423 19.315001
-116.157 39.422001 19.356001
-116.105 39.436001 19.334
-116.293 39.348 19.740999
-116.15 39.367001 19.743999
-116.234 39.391998 19.745001
-116.336 39.148998 19.719999
-116.336 39.151001 19.645
-116.294 39.148998 19.694
-116.248 39.136002 19.732
-116.203 39.151001 19.641001
-116.196 39.146999 19.709
-116.15 39.153 19.688999
-116.097 39.141998 19.721001
-116.295 39.160999 19.632
-116.243 39.16 19.674999
-116.145 39.183998 19.638
-116.101 39.157001 19.660999
-116.21 39.306 19.719999
-116.274 38.971001 19.737
-116.202 39.092999 19.737
-116.153 39.124001 19.737
-116.299 38.852001 19.708
-116.146 38.883999 19.719
-116.239 38.910999 19.731001
-116.186 38.932999 19.719999
-116.097 38.916 19.719999
-116.228 38.984001 19.719999
-116.13 38.978001 19.728001
-116.315 39.019001 19.733
-116.164 39.037998 19.733999
-116.072 39.014 19.726
-116.262 39.050999 19.731001
-116.118 39.055 19.724001
-116.297 39.105 19.728001
-116.202 38.618 19.708
-116.295 38.629002 19.708
-116.148 38.659 19.712
-116.276 38.716999 19.711
-116.186 38.707001 19.715
-116.094 38.696999 19.711
-116.316 38.771 19.714001
-116.217 38.764999 19.719
-116.168 38.779999 19.704
-116.126 38.75 19.716999
-116.251 38.821999 19.724001
-116.114 38.830002 19.719
-116.078 38.790001 19.726
-116.207 38.84 19.716
-116.305 38.549999 19.708
-116.215 38.539001 19.707001
-116.259 38.577 19.705999
-116.17 38.571999 19.707001
-116.133 38.042999 19.684
-116.173 38.091 19.687
-116.114 38.125 19.681999
-116.3 38.154999 19.639
-116.299 38.157001 19.573999
-116.263 38.154999 19.544001
-116.259 38.162998 19.483999
-116.258 38.152 19.604
-116.25 38.153999 19.666
-116.213 38.161999 19.511999
-116.211 38.160999 19.646
-116.21 38.16 19.576
-116.208 38.138 19.687
-116.171 38.164001 19.483
-116.169 38.16 19.544001
-116.16 38.159 19.605
-116.157 38.164001 19.679001
-116.121 38.161999 19.582001
-116.121 38.158001 19.507999
-116.118 38.153 19.641001
-116.082 38.160999 19.483999
-116.071 38.166 19.549999
-116.068 38.16 19.615999
-116.066 38.166 19.694
-116.029 38.166 19.521999
-116.294 38.229 19.511999
-116.236 38.272999 19.511999
-116.045 38.021 19.677999
-116.281 38.014 19.683001
-116.594 39.959999 21.721001
-116.587 39.962002 21.797001
-116.597 39.972 21.655001
-116.587 39.966999 21.884001
-116.545 39.964001 21.774
-116.544 39.971001 21.698999
-116.534 39.973 21.851999
-116.65 40.120998 21.92
-116.615 40.118 21.652
-116.61 40.119999 21.733
-116.605 40.117001 21.889
-116.604 40.118999 21.808001
-116.461 40.124001 21.802999
-116.454 40.116001 21.868
-116.415 40.116001 21.683001
-116.415 40.115002 21.841999
-116.412 40.122002 21.768
-116.409 40.122002 21.923
-116.464 40.131001 21.731001
-116.559 39.960999 21.459
-116.555 39.963001 21.538
-116.604 39.976002 21.421
-116.597 39.972 21.573999
-116.597 39.974998 21.495001
-116.557 39.969002 21.384001
-116.543 39.978001 21.625999
-116.616 40.122002 21.421
-116.614 40.115002 21.49
-116.613 40.118999 21.572001
-116.479 40.112999 21.48
-116.465 40.120998 21.643
-116.424 40.118 21.612
-116.478 40.126999 21.416
-116.469 40.130001 21.572001
-116.424 40.125999 21.541
-116.607 39.991001 21.125999
-116.605 39.979 21.190001
-116.603 39.987 21.353001
-116.602 39.979 21.264
-116.565 39.966 21.229
-116.563 39.972 21.155001
-116.559 39.969002 21.302999
-116.623 40.113998 21.115999
-116.62 40.113998 21.34
-116.618 40.115002 21.186001
-116.614 40.123001 21.267
-116.609 39.987999 20.9
-116.604 39.988998 21.046
-116.604 39.990002 20.973
-116.561 39.964001 21.068001
-116.631 40.106998 20.896
-116.621 40.110001 21.037001
-116.619 40.119999 20.971001
-116.386 38.889999 19.723
-116.373 38.972 19.721001
-116.495 38.581001 19.711
-116.344 38.594002 19.702999
-116.475 38.667 19.709999
-116.433 38.625999 19.716
-116.387 38.646999 19.711
-116.422 38.715 19.724001
-116.365 38.743 19.716999
-116.407 38.793999 19.719
-116.349 38.834 19.721001
-116.473 38.438999 19.705999
-116.51 38.491001 19.705999
-116.41 38.491001 19.716
-116.366 38.501999 19.700001
-116.321 38.473999 19.715
-116.451 38.534 19.712
-116.4 38.561001 19.705999
-116.502 38.054001 19.691
-116.41 38.057999 19.690001
-116.445 38.088001 19.679001
-116.395 38.127998 19.686001
-116.351 38.096001 19.681999
-116.304 38.132 19.684999
-116.569 38.144001 19.688
-116.535 38.148998 19.521999
-116.53 38.145 19.664
-116.528 38.152 19.597
-116.491 38.150002 19.5
-116.488 38.152 19.57
-116.482 38.146 19.632
-116.477 38.141998 19.694
-116.445 38.161999 19.479
-116.44 38.143002 19.6
-116.44 38.146 19.531
-116.437 38.153 19.676001
-116.4 38.154999 19.514999
-116.396 38.151001 19.576
-116.388 38.154999 19.642
-116.351 38.153 19.546
-116.35 38.157001 19.615
-116.348 38.167 19.489
-116.342 38.16 19.676001
-116.309 38.153 19.511
-116.42 37.98 19.681
-117.03 43.229 21.799999
-117.028 43.237 21.737
-117.028 43.236 21.666
-117.028 43.265999 21.908001
-117.036 43.393002 21.686001
-117.035 43.363998 21.801001
-117.034 43.374001 21.881001
-117.034 43.212002 21.502001
-117.033 43.237999 21.452
-117.03 43.216 21.575001
-117.032 43.245998 21.384001
-117.036 43.402 21.538
-117.034 43.388 21.599001
-117.04 43.416 21.476999
-117.038 43.423 21.400999
-117.035 43.238998 21.298
-117.036 43.279999 21.184
-117.035 43.265999 21.246
-117.043 43.390999 21.294001
-117.037 43.431 21.250999
-117.037 43.423 21.166
-117.038 43.266998 20.938
-117.037 43.251999 20.847
-117.033 43.271 21.013
-117.032 43.27 21.09
-117.043 43.376999 21.047001
-117.037 43.389 20.975
-117.037 43.401001 20.914
-117.036 43.235001 20.75
-117.032 43.254002 20.618
-117.03 43.261002 20.695
-117.037 43.383999 20.820999
-117.037 43.366001 20.729
-117.036 43.389 20.674999
-117.033 43.401001 20.608999
-117.033 43.257999 20.396
-117.03 43.27 20.327999
-117.028 43.245998 20.533001
-117.027 43.257 20.464001
-117.041 43.383999 20.445
-117.039 43.387001 20.296
-117.037 43.382 20.514999
-117.035 43.41 20.391001
-117.035 43.262001 20.1
-117.033 43.27 20.18
-117.031 43.257999 20.24
-117.031 43.264999 20.023001
-117.044 43.373001 20.211
-117.041 43.391998 20.150999
-117.037 43.404999 20.084999
-117.032 43.278 19.809
-117.03 43.278 19.959
-117.028 43.297001 19.9
-117.043 43.377998 19.985001
-117.042 43.395 19.923
-117.044 43.408001 19.782
-117.041 43.421001 19.870001
-117.039 43.286999 19.507999
-117.037 43.286999 19.664
-117.032 43.278 19.728001
-117.034 43.304001 19.6
-117.044 43.436001 19.653999
-117.044 43.432999 19.577
-117.041 43.418999 19.709999
-117.04 43.439999 19.504
-117.038 43.311001 19.233999
-117.035 43.312 19.455
-117.034 43.327999 19.395
-117.032 43.330002 19.320999
-117.044 43.43 19.200001
-117.043 43.437 19.427999
-117.041 43.453999 19.372
-117.04 43.445999 19.288
-117.025 42.995998 21.778999
-117.022 43.004002 21.862
-117.019 43.014999 21.718
-117.028 43.119999 21.833
-117.026 43.110001 21.677
-117.025 43.115002 21.75
-117.02 42.958 21.444
-117.019 42.962002 21.518999
-117.02 42.98 21.610001
-117.029 43.070999 21.569
-117.024 43.073002 21.495001
-117.024 43.088001 21.441
-117.021 42.946999 21.153
-117.019 42.950001 21.368999
-117.028 43.066002 21.277
-117.027 43.076 21.360001
-117.028 43.091 21.228001
-117.024 43.126999 21.184999
-117.02 42.946999 21.080999
-117.027 42.977001 20.885
-117.019 42.987 20.969
-117.03 43.137001 20.961
-117.029 43.112 21.093
-117.029 43.137001 20.882999
-117.029 43.118 21.018999
-117.031 42.972 20.726
-117.025 42.987999 20.582001
-117.019 43.025002 20.691
-117.03 43.116001 20.783001
-117.029 43.125999 20.641001
-117.029 43.127998 20.718
-117.025 42.979 20.346001
-117.024 42.988998 20.43
-117.021 42.988998 20.502001
-117.029 43.103001 20.466999
-117.028 43.106998 20.546
-117.024 43.120998 20.336
-117.023 43.125999 20.412001
-117.023 42.976002 20.042999
-117.022 42.977001 20.193001
-117.019 42.978001 20.264999
-117.018 42.994999 20.134001
-117.029 43.125 20.038
-117.026 43.110001 20.249001
-117.028 43.139 20.128
-117.021 43.139999 20.197001
-117.025 42.98 19.972
-117.025 42.994999 19.763
-117.024 43.002998 19.917999
-117.022 43.006001 19.844999
-117.029 43.123001 19.961
-117.028 43.140999 19.83
-117.026 43.143002 19.752001
-117.024 43.158001 19.919001
-117.027 43.001999 19.548
-117.024 43.015999 19.482
-117.023 43.021 19.639999
-117.021 43.015999 19.705
-117.031 43.146999 19.531
-117.029 43.161999 19.462999
-117.029 43.147999 19.686001
-117.028 43.160999 19.620001
-117.032 43.014 19.409
-117.03 43.022999 19.261
-117.028 43.029999 19.344999
-117.025 43.054001 19.208
-117.033 43.174999 19.25
-117.031 43.179001 19.406
-117.03 43.187 19.336
-117.032 43.196999 19.197001
-117.013 42.693001 21.716
-117.007 42.674 21.775
-117.018 42.838001 21.858999
-117.018 42.868 21.728001
-117.014 42.699001 21.639999
-117.014 42.695 21.552999
-117.014 42.719002 21.421
-117.01 42.717999 21.493
-117.02 42.834 21.538
-117.018 42.831001 21.386999
-117.017 42.863998 21.643999
-117.015 42.855999 21.482
-117.01 42.693001 21.169001
-117.006 42.703999 21.249001
-117.009 42.712002 21.334999
-117.014 42.801998 21.212999
-117.014 42.803001 21.143999
-117.009 42.826 21.302
-117.026 42.903 21.256001
-117.022 42.919998 21.198
-117.006 42.683998 21.086
-117.003 42.678001 20.868999
-117.018 42.808998 20.871
-117.017 42.778 21.051001
-117.014 42.782001 20.98
-117.012 42.808998 20.936001
-117.026 42.931 20.992001
-117.009 42.687 20.667
-117.008 42.696999 20.601999
-117.007 42.661999 20.712
-117.015 42.812 20.792999
-117.019 42.824001 20.731001
-117.018 42.859001 20.688999
-117.018 42.859001 20.610001
-117.008 42.703999 20.528999
-117.014 42.728001 20.402
-117.012 42.720001 20.316
-117.009 42.728001 20.476999
-117.021 42.84 20.285
-117.02 42.866001 20.462
-117.018 42.852001 20.524
-117.012 42.889 20.403
-117.012 42.743999 20.187
-117.012 42.729 20.099001
-117.01 42.737999 20.253
-117.02 42.838001 20.058001
-117.018 42.861 20.152
-117.015 42.855 20.216999
-117.013 42.705002 19.780001
-117.013 42.717999 19.936001
-117.013 42.709999 20.003
-117.01 42.731998 19.877001
-117.017 42.855 19.924
-117.017 42.862999 19.858
-117.015 42.866001 19.782
-117.013 42.847 19.988001
-117.014 42.735001 19.507999
-117.012 42.745998 19.593
-117.012 42.743 19.666
-117.012 42.717999 19.714001
-117.021 42.875 19.646999
-117.02 42.874001 19.497
-117.019 42.870998 19.715
-117.016 42.883999 19.577
-117.015 42.759998 19.238001
-117.013 42.757999 19.457001
-117.011 42.762001 19.309999
-117.011 42.77 19.393
-117.025 42.874001 19.351999
-117.02 42.887001 19.434
-117.019 42.907001 19.224001
-117.016 42.897999 19.290001
-117.002 42.462002 21.815001
-117.001 42.479 21.912001
-116.998 42.48 21.746
-116.999 42.512001 21.695999
-117.01 42.646999 21.837
-116.995 42.386002 21.407
-117.002 42.522999 21.542
-117 42.521999 21.625
-117.004 42.571999 21.426001
-117.003 42.549999 21.486
-116.999 42.393002 21.249001
-116.996 42.436001 21.208
-116.995 42.398998 21.336
-116.995 42.448002 21.142
-117.007 42.561001 21.259001
-117.007 42.566002 21.114
-117.006 42.558998 21.336
-117.002 42.59 21.207001
-116.999 42.424999 21.042
-116.997 42.435001 20.976
-116.997 42.438999 20.903999
-117.002 42.542 20.938999
-117.001 42.556 21.025999
-116.999 42.554001 20.881001
-117.006 42.658001 20.99
-116.997 42.388 20.709
-116.996 42.389 20.572001
-116.996 42.414001 20.806999
