# .PCD v0.7 - Point Cloud Data file format
VERSION 0.7
FIELDS x y z
SIZE 4 4 4
TYPE F F F
COUNT 1 1 1
WIDTH 1485
HEIGHT 1
VIEWPOINT 0 0 0 1 0 0 0
POINTS 1485
DATA ascii
-15.254036 20.247974 -2.0182953
-15.148788 20.26827 -2.0207634
-15.048203 20.270336 -2.0211639
-14.821587 20.256603 -2.0218315
-14.738091 20.260906 -2.0200157
-14.649864 20.264841 -2.0031776
-14.576843 20.280027 -2.0070572
-11.659302 20.232565 -2.0173454
-11.547508 20.238663 -2.0158348
-11.462418 20.268547 -2.0202751
-7.8026123 20.244108 -1.9374504
-15.296188 20.279394 -2.2489166
-7.812561 20.255236 -2.0218506
-15.300903 20.265053 -2.3846893
-7.8051224 20.224251 -2.0656433
-7.8126373 20.227398 -2.1769791
-4.4725571 20.25182 -2.0735245
-3.8411102 20.225317 -2.056469
-3.7384109 20.229958 -2.0576324
-3.6418304 20.2432 -2.052166
-3.5459976 20.220289 -2.0551796
-3.4374008 20.221069 -2.0557938
-15.302582 20.257715 -2.5343475
-7.8133011 20.232553 -2.325592
-3.8695984 20.237312 -2.1750565
-15.304916 20.27203 -2.6680069
-15.308136 20.286007 -2.7951889
-8.3731689 20.209299 -2.6363182
-8.3213501 20.248405 -2.6347656
-8.2238922 20.243902 -2.6369553
-8.1328888 20.207262 -2.6397324
-7.947937 20.216454 -2.6341133
-15.306213 20.273643 -2.9347229
-8.9164352 20.259249 -2.7302513
-8.4066086 20.239515 -2.7048645
-3.8696289 20.210747 -2.5973511
-15.309258 20.249287 -3.0624352
-5.0331573 20.206911 -2.716011
-4.0186615 20.231773 -2.6430206
-3.9422913 20.202438 -2.6373177
-15.30703 20.287407 -3.1898994
-15.304436 20.292572 -3.3599129
-15.309998 20.280739 -3.4997101
-15.309532 20.271381 -3.6397934
-15.311653 20.265503 -3.7489395
-15.309326 20.267118 -3.8699341
-15.308701 20.270748 -3.9989891
-15.300537 20.22575 -4.0367622
-15.30928 20.27939 -4.1355934
-15.315193 20.284046 -4.263382
-15.303062 20.234034 -4.3010139
-15.316719 20.252188 -4.3925476
-15.310768 20.258802 -4.5304146
-15.314621 20.256439 -4.6466293
-15.311012 20.287552 -4.7715569
-15.312973 20.277178 -4.8862076
-15.309204 20.283798 -5.0186501
-15.314285 20.279934 -5.1289063
-15.410362 20.267038 -5.3119698
-15.313843 20.253063 -5.2564964
-15.46611 20.27883 -5.3604813
-15.318359 20.284693 -5.3641968
-7.7632751 20.320953 -0.0057449341
-7.6999588 20.343281 -0.010665894
-7.6040268 20.335514 -0.0080451965
-7.5398865 20.327991 -0.011764526
-3.9718246 20.309368 0.14683914
-3.9214554 20.318449 0.18066788
-3.8241425 20.313446 0.17964172
-3.7138519 20.316965 0.18108368
-3.6250839 20.307838 0.17424774
-7.7731857 20.352123 -0.13064575
-3.9698792 20.325016 -0.0036735535
-7.7791672 20.320328 -0.30350113
-3.9678574 20.32865 -0.14368439
-7.7831345 20.325003 -0.45724106
-4.3965836 20.328255 -0.38316345
-3.9648514 20.308329 -0.32822037
-7.7880249 20.318672 -0.60101318
-7.268219 20.334915 -0.59841919
-7.1840515 20.332048 -0.59490967
-4.4698334 20.315155 -0.46334457
-4.3111725 20.310461 -0.4579277
-4.1883392 20.341967 -0.49628448
-3.9605103 20.35297 -0.48612213
-7.7887115 20.350822 -0.74610138
-7.790596 20.293842 -0.75622177
-4.4680252 20.334045 -0.6884079
-4.3883667 20.328365 -0.68756485
-4.317421 20.331688 -0.6515007
-7.7925949 20.32099 -0.89286041
-4.4826508 20.335514 -0.75997162
-7.795845 20.340139 -1.0235443
-7.7919693 20.296154 -1.053463
-4.3677979 20.313257 -0.99403381
-14.652489 20.354328 -1.4918671
-7.7996368 20.338305 -1.1697731
-4.345871 20.306246 -1.076313
-4.3034286 20.333044 -1.0567665
-14.691284 20.358517 -1.5117645
-14.600388 20.328106 -1.4970284
-14.124039 20.359541 -1.4944763
-14.076065 20.379856 -1.5182648
-12.64492 20.353388 -1.4996223
-12.077225 20.35673 -1.45261
-11.972168 20.354303 -1.4150276
-5.2395325 20.368282 -1.2342911
-4.3615189 20.32741 -1.1679077
-7.7965317 20.310501 -1.3718147
-6.2733536 20.324848 -1.3193321
-5.9346313 20.318424 -1.3622627
-5.3145599 20.301702 -1.3270912
-7.7999802 20.32966 -1.5110092
-6.2798233 20.372002 -1.4406052
-6.0372543 20.337965 -1.4559708
-5.970726 20.321646 -1.4252586
-5.3592606 20.338987 -1.4157181
-5.2968903 20.292704 -1.402523
-14.976357 20.374132 -1.8816719
-6.0814056 20.343496 -1.5431023
-5.9822617 20.29776 -1.48806
-5.4145889 20.314821 -1.5082779
-7.796936 20.354801 -1.6629791
-6.1310577 20.320555 -1.6334534
-6.0989838 20.283392 -1.6113243
-5.4512558 20.318924 -1.6161537
-2.6766968 20.316956 -1.504425
-15.300262 20.37771 -2.0528564
-15.233574 20.364056 -2.0212898
-15.141273 20.374327 -2.0266533
-15.030556 20.377714 -2.0258942
-14.817825 20.382256 -2.0230942
-14.728691 20.364449 -2.0181694
-14.625763 20.374414 -2.0132256
-14.568878 20.370497 -2.0091972
-7.7994461 20.324945 -1.7921715
-15.300522 20.375362 -2.1999588
-11.707527 20.364117 -2.0239525
-11.638214 20.350809 -2.0189819
-11.540489 20.34005 -2.0156631
-11.46257 20.353718 -2.0195389
-7.8502884 20.327917 -2.0351448
-4.5648575 20.34503 -1.8876266
-4.342598 20.353584 -1.9036827
-15.302071 20.364014 -2.3396187
-4.5473633 20.298532 -1.9625816
-4.3417435 20.346149 -1.9707031
-4.2620087 20.328768 -1.9358444
-15.303848 20.358173 -2.4867744
-7.8074341 20.308357 -2.1587105
-3.8293228 20.330021 -2.05896
-3.7343292 20.313108 -2.059082
-3.6425705 20.325199 -2.0492821
-3.5368805 20.326752 -2.0573425
-3.4383774 20.332659 -2.0594864
-3.3772659 20.301058 -2.0558281
-7.8117065 20.328009 -2.2884254
-3.8666916 20.366283 -2.156826
-15.307373 20.374329 -2.6239777
-15.302818 20.37047 -2.7799149
-7.9195709 20.332859 -2.4989128
-15.306038 20.358624 -2.9151268
-8.3973083 20.348425 -2.6575737
-8.3233871 20.349087 -2.6400871
-8.2126007 20.359104 -2.6376991
-8.1204681 20.331205 -2.6361809
-7.9331131 20.350397 -2.6404724
-8.9012985 20.358688 -2.73563
-8.4212952 20.352102 -2.7279739
-15.305977 20.368752 -3.0416946
-4.0233765 20.324125 -2.64011
-3.9179688 20.314751 -2.6387634
-15.304802 20.37888 -3.1712265
-15.315239 20.357059 -3.3017082
-15.307961 20.363209 -3.4765472
-15.312096 20.353367 -3.6137962
-15.313164 20.361998 -3.7369041
-15.305679 20.375607 -3.8747177
-15.307053 20.374731 -3.9903336
-15.310013 20.375875 -4.1170235
-15.307549 20.381506 -4.2555161
-15.309219 20.355156 -4.393692
-15.30999 20.382778 -4.5087662
-15.308998 20.350908 -4.6383476
-15.314819 20.369038 -4.7390976
-15.312157 20.371658 -4.8695831
-15.317963 20.370804 -4.986866
-15.315239 20.379927 -5.1178436
-15.425247 20.385607 -5.3148994
-15.312653 20.384546 -5.2458305
-15.465012 20.364304 -5.3388481
-15.347862 20.375977 -5.3535004
-7.716423 20.432751 -0.0056343079
-7.6147079 20.440815 -0.011333466
-7.525528 20.441925 -0.0076408386
-3.9703979 20.409336 0.17499542
-3.8946381 20.412004 0.17903519
-3.8041229 20.42828 0.17762375
-3.7182693 20.404736 0.18250275
-3.6320114 20.424534 0.17709732
-7.7744904 20.422569 -0.071594238
-3.9721451 20.423492 0.029853821
-7.7782974 20.446247 -0.22781372
-7.7806778 20.389296 -0.26647186
-3.9647369 20.446627 -0.13246155
-7.7809601 20.430958 -0.4210434
-3.9661179 20.420446 -0.27413177
-4.3974075 20.421753 -0.37660599
-7.7824173 20.433123 -0.57619476
-7.2579727 20.45438 -0.60445404
-7.1972809 20.438107 -0.59679794
-7.1286774 20.425314 -0.59985352
-4.494072 20.44828 -0.48210907
-4.3269272 20.42103 -0.45914078
-4.2234802 20.412136 -0.5124855
-3.9608307 20.426941 -0.45405197
-7.787178 20.430794 -0.72295761
-4.3229065 20.404675 -0.6151123
-4.562645 20.416788 -0.68821335
-4.4668884 20.439106 -0.66976166
-4.3572159 20.392866 -0.65504074
-7.7910309 20.431961 -0.86719131
-7.7951126 20.42762 -1.0054245
-4.261879 20.375645 -0.84210205
-4.1976624 20.427395 -0.86877823
-7.7973404 20.445265 -1.1365776
-14.625893 20.481215 -1.4928017
-7.7954102 20.405287 -1.1675644
-14.657516 20.443367 -1.5084763
-14.121712 20.454029 -1.4918098
-14.062469 20.445808 -1.526722
-12.645271 20.46497 -1.4943733
-12.13343 20.479414 -1.4887276
-12.051605 20.449505 -1.4370422
-11.975853 20.478159 -1.4180565
-7.7976456 20.432446 -1.3117104
-6.2743683 20.429781 -1.2502327
-5.8723679 20.413034 -1.2448807
-5.2335587 20.421251 -1.2270317
-4.3676834 20.426464 -1.1935654
-5.9006119 20.438208 -1.2913971
-5.6436157 20.45713 -1.3267174
-5.2824097 20.439548 -1.3133163
-4.4575882 20.425959 -1.2953377
-7.8014221 20.40663 -1.4749718
-5.9741669 20.431156 -1.4181137
-5.3334351 20.384865 -1.4047432
-14.94648 20.465998 -1.8758507
-7.8019409 20.467783 -1.6210327
-6.2900085 20.437147 -1.5394745
-6.0736923 20.430704 -1.5312462
-5.44133 20.40048 -1.5476799
-5.4035263 20.427248 -1.4822655
-14.994644 20.495314 -1.9802856
-7.7948532 20.423788 -1.6568375
-6.2743683 20.40016 -1.6174927
-6.1228333 20.414515 -1.6280785
-5.4708862 20.410177 -1.6152687
-2.6657791 20.416416 -1.5104523
-15.296883 20.484167 -2.0226212
-15.239937 20.454748 -2.0187798
-15.151031 20.467701 -2.0222588
-15.063622 20.481655 -2.0211182
-14.987221 20.462326 -2.0240784
-14.836411 20.479677 -2.0281715
-14.738144 20.471743 -2.0204163
-14.608574 20.461666 -2.0075302
-14.555817 20.444462 -2.0296783
-7.8010025 20.425438 -1.7786369
-15.30291 20.478836 -2.1624298
-11.694702 20.456059 -2.0214081
-11.620377 20.459732 -2.0150795
-11.538322 20.447626 -2.0165749
-11.467392 20.456066 -2.0122795
-7.8023529 20.485058 -1.8871994
-4.4244461 20.467361 -1.8254623
-15.299194 20.501968 -2.3053665
-7.805954 20.424206 -2.0179672
-4.5494537 20.40597 -1.8910217
-4.3346634 20.419056 -1.9078445
-4.269783 20.378773 -1.908062
-15.298286 20.462996 -2.3353882
-15.302872 20.473141 -2.4581223
-7.8139267 20.454472 -2.2388649
-4.1679306 20.424496 -2.0644798
-3.810173 20.417608 -2.061367
-3.7324753 20.400274 -2.0629425
-3.6306686 20.4214 -2.0482674
-3.5423203 20.415771 -2.0524597
-3.4423599 20.424343 -2.0582161
-3.3700104 20.398024 -2.0509758
-15.302963 20.48628 -2.5937004
-7.8110046 20.412487 -2.2698174
-3.8665466 20.409254 -2.1277657
-15.298813 20.448299 -2.6306114
-7.8147964 20.451622 -2.382988
-15.306419 20.453959 -2.7529526
-7.8975296 20.426422 -2.4883728
-7.8143616 20.457775 -2.5340652
-15.305031 20.452608 -2.9040031
-8.3919373 20.439388 -2.6427917
-8.3283005 20.446114 -2.6401787
-8.2357483 20.451706 -2.6345291
-8.1590347 20.425375 -2.6374779
-7.9270859 20.442362 -2.6296692
-7.810257 20.423794 -2.5689697
-15.303864 20.513716 -3.0129776
-8.9681244 20.402981 -2.7364731
-8.9433823 20.443861 -2.7235451
-8.4113083 20.441549 -2.7165298
-15.309853 20.456749 -3.0202484
-5.0151978 20.463831 -2.7111435
-4.0734711 20.421686 -2.6494827
-3.9914322 20.423992 -2.6442108
-3.8982544 20.426582 -2.6378784
-15.302856 20.471359 -3.1585732
-15.308418 20.446016 -3.2858734
-15.308159 20.44418 -3.4469681
-15.311348 20.463003 -3.5843201
-15.311058 20.504461 -3.7086868
-15.311554 20.455484 -3.728756
-15.306984 20.462595 -3.8556709
-15.307846 20.460718 -3.9717751
-15.306549 20.459835 -4.0918083
-15.308929 20.461979 -4.2209778
-15.314232 20.504133 -4.3472061
-15.307678 20.442127 -4.3700447
-15.307823 20.484262 -4.5010986
-15.308861 20.486397 -4.6257095
-15.313324 20.479532 -4.7394485
-15.314384 20.498648 -4.847538
-15.310616 20.468773 -4.98452
-15.314018 20.465904 -5.0997162
-15.41922 20.473572 -5.3045998
-15.309929 20.469019 -5.2276459
-15.458206 20.463772 -5.335022
-15.332985 20.468899 -5.3382111
-7.7753372 20.534359 -0.024997711
-7.7239609 20.522453 -0.0081634521
-7.6183395 20.522583 -0.011390686
-7.5343399 20.55097 -0.01386261
-3.924736 20.510927 0.18392181
-3.8123474 20.516975 0.18507767
-3.7115021 20.51054 0.18099976
-3.6279221 20.52186 0.16782379
-3.9708633 20.520454 0.062004089
-7.7784576 20.535202 -0.18471146
-3.9666901 20.510599 -0.097957611
-7.7807083 20.525909 -0.37442398
-3.9657898 20.510736 -0.23501205
-7.7841263 20.533081 -0.53014374
-4.4655685 20.522076 -0.40297318
-4.3853455 20.518703 -0.38009644
-3.9620132 20.532887 -0.39395905
-7.2538071 20.540358 -0.59872818
-7.1952896 20.540098 -0.59329605
-7.1192627 20.54777 -0.59640884
-4.5286179 20.508436 -0.48829269
-4.305954 20.535469 -0.48530579
-4.2087402 20.518084 -0.51987457
-3.9645309 20.486914 -0.41310501
-7.7857132 20.531246 -0.6817894
-4.4735794 20.485243 -0.53337097
-4.2524872 20.545279 -0.52441025
-4.2254639 20.537247 -0.60950851
-7.787178 20.537413 -0.83644104
-6.679863 20.549059 -0.78132248
-4.5587692 20.513094 -0.67548752
-4.3690338 20.540924 -0.66100693
-6.6922302 20.532661 -0.82930756
-7.7934341 20.529078 -0.97025681
-7.7954178 20.524729 -1.1109238
-14.648262 20.552654 -1.5018883
-14.137077 20.558767 -1.4972725
-14.101364 20.571936 -1.4869766
-12.628326 20.546558 -1.4923592
-12.602188 20.599445 -1.4893799
-12.126823 20.553392 -1.4964409
-12.059654 20.541649 -1.4454117
-11.985825 20.581705 -1.4203262
-7.7976303 20.522892 -1.2590981
-6.2694244 20.516748 -1.2379761
-5.8552933 20.509962 -1.2486877
-5.585083 20.509802 -1.2545395
-5.2580261 20.532387 -1.2568321
-4.3566055 20.497421 -1.2006073
-7.8000717 20.52656 -1.4142838
-6.278511 20.535414 -1.3593597
-5.9320602 20.511417 -1.3640099
-5.8913422 20.533163 -1.2874832
-5.6347198 20.531065 -1.3003235
-5.2855453 20.497541 -1.2935333
-4.4447784 20.5219 -1.2922935
-4.4111252 20.558697 -1.235527
-6.2700882 20.484938 -1.4191437
-6.0205841 20.554888 -1.4481812
-5.9807587 20.544695 -1.42976
-5.7618713 20.502729 -1.4139633
-5.6640701 20.526281 -1.389431
-5.3380127 20.527138 -1.4062881
-4.4742966 20.515587 -1.348896
-15.009186 20.575294 -1.8996811
-14.949539 20.555676 -1.872551
-7.7996826 20.511745 -1.5948944
-6.0650711 20.518656 -1.5238533
-5.6790466 20.548477 -1.5140228
-5.3832626 20.547153 -1.4744301
-15.292381 20.571636 -2.0118752
-15.006111 20.534317 -1.9346313
-7.80513 20.553894 -1.7171326
-6.1177292 20.481459 -1.5948143
-5.4633179 20.490622 -1.5934219
-2.6621628 20.531404 -1.5138931
-15.225571 20.570103 -2.0194969
-15.130623 20.570278 -2.0211067
-15.037155 20.583208 -2.0214157
-14.820747 20.563602 -2.0220337
-14.760956 20.55934 -2.0155678
-14.645027 20.551325 -2.0055084
-7.7967453 20.513903 -1.7608948
-1.2051544 20.543095 -1.5141449
-15.298813 20.560797 -2.1411972
-11.64106 20.554325 -2.0194054
-11.534508 20.552029 -2.0169334
-11.459305 20.553535 -2.0164146
-7.7994843 20.545034 -1.8760414
-15.300674 20.554951 -2.2853622
-7.8369522 20.496363 -2.0375214
-4.4089966 20.555325 -1.8548508
-4.3433838 20.534101 -1.9155617
-4.293335 20.485905 -1.9358292
-4.2834015 20.56588 -1.9524117
-4.174324 20.489473 -2.0176277
-15.30204 20.583103 -2.425972
-7.8091507 20.552444 -2.2346039
-4.2166977 20.527672 -2.0311127
-3.8272858 20.513519 -2.0652313
-3.7381439 20.497293 -2.0603943
-3.6384354 20.53569 -2.0549545
-3.5146332 20.509317 -2.0507126
-3.4171448 20.518898 -2.0518951
-15.303543 20.571257 -2.5671272
-15.301086 20.597399 -2.7166138
-7.8129959 20.539597 -2.3668404
-15.303085 20.531414 -2.7247467
-7.8963776 20.504581 -2.4874268
-15.306564 20.553072 -2.8629456
-10.289856 20.57769 -2.7185478
-8.3810959 20.53784 -2.6398163
-8.3018417 20.544998 -2.64048
-8.2085876 20.547588 -2.635479
-8.1437836 20.525318 -2.646347
-7.9485855 20.541456 -2.6321869
-15.300529 20.582703 -3.0138016
-9.3892288 20.543806 -2.7379036
-8.909729 20.530973 -2.7307739
-8.4190063 20.541607 -2.7407341
-4.0132446 20.516918 -2.6432419
-3.9042587 20.51894 -2.6363449
-15.305473 20.552843 -3.1310768
-15.307961 20.562984 -3.256237
-15.305077 20.552126 -3.4082375
-15.307335 20.572285 -3.5523987
-15.308823 20.572451 -3.7065468
-15.307465 20.588581 -3.8405647
-15.309792 20.561714 -3.9607544
-15.308716 20.559828 -4.0747871
-15.309273 20.588955 -4.1958618
-15.312157 20.614084 -4.3080139
-15.305641 20.535963 -4.2197952
-15.306 20.569096 -4.3458595
-15.310013 20.568241 -4.4715805
-15.310974 20.569376 -4.5981979
-15.31942 20.589512 -4.6955414
-15.311707 20.533506 -4.7223282
-15.306595 20.566744 -4.9732857
-15.312485 20.563887 -5.0885658
-15.314133 20.56452 -5.2102013
-15.440254 20.564165 -5.3070259
-15.339531 20.576269 -5.3476906
-3.9063568 20.656044 0.19150925
-7.7736511 20.645006 -0.011833191
-7.7086487 20.625969 -0.0060272217
-7.6117935 20.617636 -0.0084114075
-7.5289078 20.603939 -0.0051231384
-3.9707108 20.632402 0.11314011
-3.9077148 20.594723 0.18440247
-3.805275 20.626867 0.180336
-3.7195282 20.605244 0.18380356
-3.6460648 20.617424 0.18276978
-7.7777939 20.616653 -0.13708496
-3.9687271 20.595427 0.081157684
-3.9652634 20.620573 -0.077796936
-7.7786942 20.625004 -0.31189346
-3.9640579 20.604725 -0.22986984
-7.7840347 20.625534 -0.47952652
-4.364296 20.640644 -0.40825272
-3.9611588 20.618368 -0.37934875
-7.7846451 20.655687 -0.62661362
-7.2467575 20.623819 -0.58939362
-7.1699753 20.638662 -0.59930801
-4.4719391 20.631182 -0.47714996
-4.4019623 20.627848 -0.44763184
-4.2815933 20.61985 -0.47085571
-7.7880554 20.608725 -0.64878845
-4.5122681 20.65246 -0.57814407
-7.7887344 20.637375 -0.794384
-6.7142181 20.644217 -0.78847504
-4.512413 20.609562 -0.67724228
-4.4160995 20.642134 -0.6662674
-7.7886429 20.66102 -0.9339447
-6.7396393 20.6574 -0.85941315
-6.6693954 20.641088 -0.8529129
-7.7899246 20.620052 -0.95904541
-7.7904739 20.644695 -1.0951309
-14.694916 20.712486 -1.4650536
-14.569328 20.690943 -1.463253
-14.458084 20.689968 -1.4726105
-14.353081 20.706993 -1.454834
-14.266167 20.709616 -1.4507217
-14.136749 20.707064 -1.4601059
-14.045326 20.70365 -1.4428291
-13.960747 20.70327 -1.4298019
-13.843674 20.703276 -1.4436302
-13.757477 20.706392 -1.4330368
-13.642471 20.704893 -1.431427
-13.547836 20.708469 -1.4190292
-13.494965 20.701265 -1.4431648
-13.262947 20.699257 -1.4398766
-13.167961 20.701841 -1.4374771
-12.971985 20.699989 -1.4334679
-7.7957535 20.633354 -1.2284126
-14.755646 20.70933 -1.5442772
-14.675735 20.658796 -1.5227852
-14.596405 20.652594 -1.4991035
-14.491547 20.701645 -1.5008163
-14.364784 20.665089 -1.4966507
-14.260834 20.666647 -1.5026016
-14.167526 20.670238 -1.4995956
-14.06459 20.679129 -1.5039139
-13.96772 20.691048 -1.5067825
-13.879387 20.687653 -1.4959488
-13.757278 20.678724 -1.512104
-13.65242 20.690683 -1.5095139
-13.552757 20.681826 -1.5015335
-13.448143 20.683128 -1.5048828
-13.357887 20.688721 -1.4913063
-13.274734 20.682384 -1.5133591
-13.183022 20.683641 -1.5030746
-13.101631 20.685125 -1.5031586
-12.983231 20.689091 -1.4839172
-12.751244 20.692406 -1.4696121
-12.66584 20.667467 -1.4843407
-12.562675 20.681442 -1.4592743
-12.467674 20.679846 -1.4724884
-12.365944 20.670605 -1.4720612
-12.249207 20.6737 -1.4734879
-12.13958 20.662025 -1.473381
-12.060402 20.665808 -1.4511833
-11.97245 20.655977 -1.4171143
-5.8336334 20.619894 -1.2673264
-5.5714493 20.61574 -1.2496223
-5.2494125 20.621845 -1.2489357
-4.3659668 20.610971 -1.2048492
-14.706337 20.712698 -1.6215591
-13.993385 20.710623 -1.6350937
-13.806908 20.709795 -1.6174164
-13.666748 20.710218 -1.6474266
-13.580299 20.708828 -1.6303253
-13.444405 20.696236 -1.6264839
-13.211159 20.705225 -1.6281357
-13.114243 20.7068 -1.6236687
-13.010994 20.707359 -1.6289825
-12.920486 20.702951 -1.6137428
-12.68705 20.697948 -1.6224098
-7.8000107 20.631523 -1.3751602
-6.2779236 20.635874 -1.3212242
-5.9363022 20.606771 -1.3644066
-5.8853836 20.643494 -1.3101921
-5.6265564 20.647394 -1.3279419
-5.3102417 20.654711 -1.3486443
-5.2891617 20.614052 -1.2853889
-4.4307556 20.623844 -1.2942047
-4.3932266 20.634636 -1.2508354
-14.71508 20.710886 -1.7689705
-14.68399 20.693714 -1.7308502
-7.8006058 20.660677 -1.5227547
-6.2788162 20.644537 -1.4773521
-6.0117569 20.646851 -1.4457893
-5.9757156 20.64768 -1.4324913
-5.675087 20.632687 -1.4090805
-5.3488846 20.606276 -1.4121094
-4.4615021 20.627041 -1.3573456
-14.998291 20.625238 -1.8902473
-14.964394 20.674072 -1.8713074
-14.754547 20.714146 -1.8544273
-14.64798 20.701672 -1.8416252
-7.8006821 20.619709 -1.5538101
-6.303009 20.644238 -1.5702744
-6.2707214 20.584055 -1.5291443
-6.1106491 20.621401 -1.565918
-6.0600891 20.632809 -1.5279121
-5.6922531 20.623034 -1.512928
-5.4237747 20.62606 -1.535183
-2.9129105 20.65943 -1.4540367
-2.6899719 20.650461 -1.44907
-2.5534363 20.654881 -1.4611969
-15.289894 20.642633 -2.0167274
-14.720192 20.710091 -1.9477654
-14.685455 20.684439 -1.9430389
-14.578362 20.704458 -1.9271889
-7.8026657 20.671856 -1.6879196
-5.456337 20.667599 -1.5990143
-2.9450302 20.623116 -1.4977455
-2.8436279 20.619982 -1.5044289
-2.7397156 20.625233 -1.5024109
-2.6402512 20.628973 -1.5083542
-2.58815 20.641071 -1.4994736
-2.4560471 20.633001 -1.5007629
-2.1968384 20.64535 -1.4724655
-1.752861 20.646418 -1.4635963
-0.98642731 20.643095 -1.4622078
-15.297424 20.666761 -2.1110382
-15.239937 20.681087 -2.0189171
-15.136574 20.66497 -2.0202332
-15.043213 20.677565 -2.0178871
-14.826073 20.672956 -2.0181313
-14.73613 20.649899 -2.017601
-14.626678 20.671749 -2.0073318
-14.553581 20.691431 -2.0063667
-7.8056412 20.634033 -1.8471603
-2.5562668 20.625017 -1.5814018
-15.296799 20.622782 -2.1340675
-11.64637 20.635345 -2.0150223
-11.529945 20.661343 -2.0173454
-11.450714 20.63899 -2.0085258
-15.297615 20.670921 -2.2638054
-4.3997192 20.615286 -1.8554649
-15.298309 20.71405 -2.3882027
-7.8087463 20.638302 -2.0954323
-4.3255844 20.64905 -1.9378395
-4.210907 20.581635 -2.018856
-15.296371 20.675076 -2.4191895
-3.8520508 20.609791 -2.0606995
-3.7496643 20.606174 -2.056118
-3.6413803 20.622204 -2.0529823
-3.5185699 20.602669 -2.0504456
-3.4208145 20.610912 -2.0502815
-15.298157 20.691216 -2.5493202
-7.8141937 20.665554 -2.3177376
-15.301712 20.679373 -2.6890488
-7.8059311 20.626558 -2.3575058
-11.063828 20.695957 -2.6350517
-7.9452667 20.602331 -2.5216141
-7.8131485 20.656696 -2.4598007
-15.302406 20.669531 -2.8386765
-11.10746 20.665583 -2.7336998
-11.033966 20.682913 -2.7160492
-10.122978 20.692934 -2.6839638
-10.030922 20.691017 -2.670166
-9.9308167 20.689587 -2.6715889
-9.8087845 20.684322 -2.684742
-9.7073212 20.687599 -2.6535873
-9.5976028 20.687614 -2.6436653
-9.5159149 20.692278 -2.6607513
-9.4146271 20.69136 -2.6811447
-9.1144943 20.684515 -2.6383972
-9.0329819 20.687689 -2.6645012
-8.9181976 20.686699 -2.6709023
-8.7878036 20.685116 -2.6517296
-8.6963348 20.683701 -2.6354523
-8.6377029 20.688494 -2.6793823
-8.4138412 20.667824 -2.6460495
-8.3103561 20.636362 -2.6337013
-8.2144165 20.645285 -2.6382675
-8.1380539 20.651285 -2.6370354
-7.975647 20.658503 -2.5606728
-7.9511871 20.635469 -2.6318665
-3.8733826 20.646635 -2.4670219
-15.30304 20.666189 -2.9892998
-11.063042 20.630102 -2.7771683
-9.9836655 20.682381 -2.7335281
-9.7067184 20.686172 -2.7266159
-9.614563 20.668779 -2.7313423
-9.413559 20.637245 -2.7318535
-9.3067169 20.665936 -2.7218399
-9.0834427 20.674471 -2.7243538
-9.0147705 20.667181 -2.7289085
-8.9270248 20.638794 -2.7235451
-8.8086472 20.667536 -2.7282906
-8.7048798 20.667822 -2.7154922
-8.5949097 20.655354 -2.7235794
-8.4996109 20.666271 -2.7191582
-8.4090042 20.615881 -2.7222977
-6.4676971 20.667055 -2.6428299
-6.3997498 20.672813 -2.6954308
-6.3199463 20.671432 -2.660553
-6.2378464 20.674049 -2.6336021
-6.1081848 20.672503 -2.6499786
-5.9823303 20.672981 -2.6714897
-5.8893661 20.670574 -2.6691742
-5.8064728 20.666214 -2.6652107
-5.718483 20.669828 -2.663063
-5.6306152 20.673441 -2.6569176
-5.5379257 20.67503 -2.646595
-5.4381027 20.673592 -2.6400261
-5.2014008 20.67058 -2.6555786
-6.4004288 20.614832 -2.7115135
-6.2199707 20.651314 -2.7235413
-6.1160202 20.667603 -2.7112999
-5.7058945 20.640825 -2.7106667
-5.6095734 20.646414 -2.7172241
-5.4916687 20.666895 -2.7099915
-5.3864212 20.656103 -2.7072372
-5.18013 20.652557 -2.7208786
-5.1018906 20.660852 -2.6880569
-5.012764 20.651796 -2.6863708
-4.9376602 20.653986 -2.7016945
-4.7978134 20.654551 -2.7042046
-4.7168732 20.654018 -2.6912994
-4.6127548 20.664568 -2.6915703
-4.4839172 20.652515 -2.6953125
-4.3741608 20.658533 -2.6910477
-4.2922821 20.657204 -2.7141418
-4.0183334 20.601437 -2.6375961
-3.9017487 20.618671 -2.6286621
-15.303192 20.65233 -3.1269073
-4.9099197 20.618107 -2.772953
-4.8225021 20.617565 -2.7781639
-4.724144 20.625132 -2.771637
-4.621727 20.629684 -2.7669716
-4.5241852 20.631748 -2.7519722
-4.4290314 20.615339 -2.7565918
-4.3249207 20.628403 -2.7703667
-4.2211761 20.617455 -2.7716713
-15.308968 20.67746 -3.2281532
-15.308205 20.657095 -3.3637314
-15.309883 20.669241 -3.4973679
-15.306702 20.628265 -3.5353127
-15.30899 20.649424 -3.6784706
-15.307396 20.67156 -3.8184776
-15.311203 20.676199 -3.9351845
-15.309753 20.650322 -4.0627403
-15.309326 20.675932 -4.1697693
-15.311104 20.684074 -4.3009109
-15.312302 20.65522 -4.4390678
-15.310112 20.665857 -4.5830688
-15.311333 20.675499 -4.7151871
-15.306725 20.70961 -4.8400764
-15.314842 20.655376 -5.0675583
-15.314552 20.682997 -5.1840973
-15.4291 20.665125 -5.3132896
-15.316193 20.653631 -5.309761
-15.279442 20.78351 0.0030555725
-15.204445 20.773184 0.0032348633
-15.107719 20.78327 -0.00030899048
-15.017715 20.786377 0.0019111633
-14.931908 20.761002 0.0054626465
-14.814613 20.790495 0.0031776428
-15.277222 20.752539 -0.034912109
-15.194244 20.758703 -0.059959412
-15.096062 20.75577 -0.049446106
-15.008972 20.754879 -0.036823273
-14.909485 20.758987 -0.075790405
-14.822891 20.761581 -0.044342041
-14.709671 20.771267 -0.021205902
-14.610764 20.769966 -0.015071869
-14.517311 20.770445 -0.033538818
-14.408348 20.765423 -0.014175415
-14.318069 20.767628 -0.026866913
-14.222908 20.76771 -0.022712708
-14.125908 20.767786 -0.020999908
-14.019409 20.768864 -0.010334015
-13.908073 20.775391 -0.01675415
-13.809418 20.759146 -0.0019302368
-13.718758 20.770103 -0.017532349
-13.509781 20.769859 -0.013053894
-13.422691 20.768984 -0.014110565
-13.330528 20.773573 -0.0023040771
-13.214401 20.769575 -0.0071640015
-13.090065 20.776711 -0.015384674
-13.009232 20.754684 -0.0073432922
-12.916306 20.758278 -0.0030136108
-12.8218 20.769367 -0.00012588501
-12.723015 20.785944 -0.0040855408
-12.609978 20.763285 -0.0015640259
-12.491554 20.781933 0.00018692017
-12.401108 20.762541 0.00090026855
-12.307411 20.77614 -0.00074005127
-12.234238 20.770327 -0.0051345825
-12.117409 20.763313 0.0010452271
-15.285835 20.785713 -0.1677742
-15.226303 20.754929 -0.14315796
-15.111961 20.761192 -0.15007401
-15.000343 20.763798 -0.15575409
-14.929321 20.760666 -0.16455841
-14.817574 20.762348 -0.16456223
-14.714226 20.758204 -0.135849
-14.627953 20.758837 -0.14210892
-14.523804 20.759388 -0.14404678
-14.408096 20.759882 -0.14066315
-14.297096 20.755892 -0.13194275
-14.196426 20.760458 -0.13484573
-14.099068 20.75503 -0.12936783
-14.006218 20.757124 -0.12353897
-13.916389 20.759726 -0.11632538
-13.816635 20.756296 -0.11776352
-13.712936 20.75717 -0.10739136
-13.617195 20.760431 -0.11663437
-13.475166 20.752815 -0.11556244
-13.410225 20.751856 -0.10324097
-13.316185 20.758436 -0.09286499
-13.217941 20.753174 -0.088855743
-13.131271 20.752787 -0.078250885
-13.010704 20.754446 -0.091949463
-12.90155 20.74428 -0.06754303
-12.804924 20.754362 -0.068080902
-12.718353 20.751154 -0.068820953
-12.613609 20.753038 -0.073745728
-12.514404 20.751608 -0.072868347
-12.406456 20.752472 -0.069675446
-12.29303 20.751133 -0.056285858
-12.208267 20.750242 -0.034236908
-12.103119 20.750818 -0.064498901
-12.011154 20.762888 -0.032180786
-11.915092 20.758215 -0.026004791
-11.81897 20.759048 -0.027313232
-11.714844 20.758898 -0.025192261
-11.601646 20.758934 -0.020549774
-11.498001 20.766407 -0.02633667
-11.395859 20.765041 -0.019851685
-11.309052 20.753321 -0.0095863342
-11.214928 20.757263 -0.024730682
-11.119102 20.760509 -0.017963409
-11.026375 20.768772 -0.016975403
-10.914665 20.757618 -0.015190125
-10.798622 20.755783 -0.016513824
-10.707451 20.760717 -0.0099143982
-10.613754 20.771307 -0.0078887939
-10.504524 20.760174 -0.013660431
-10.42009 20.750967 -0.006816864
-10.324409 20.760056 -0.0088882446
-10.252037 20.758249 -0.018310547
-15.259109 20.761692 -0.26040268
-15.201462 20.763775 -0.25867081
-15.097237 20.761 -0.26811981
-14.88488 20.762043 -0.23200989
-14.802292 20.762671 -0.21905136
-14.717377 20.770298 -0.21400833
-14.570595 20.765682 -0.23377609
-14.484497 20.761282 -0.20768738
-14.341377 20.750664 -0.20958328
-14.210434 20.758078 -0.19088364
-14.06292 20.758436 -0.18861008
-13.984924 20.752111 -0.20183945
-13.890289 20.759203 -0.20295334
-13.821709 20.764421 -0.21700287
-13.709061 20.755423 -0.20648193
-13.622025 20.76103 -0.19135666
-13.40197 20.76059 -0.20299911
-13.280762 20.763565 -0.20616531
-13.191055 20.759153 -0.18294907
-13.090965 20.756226 -0.18821335
-13.002876 20.752171 -0.18072891
-12.907394 20.759434 -0.19131851
-12.817818 20.754366 -0.17844772
-12.706299 20.75922 -0.1814537
-12.594643 20.751543 -0.15662766
-12.491951 20.75563 -0.1874733
-12.404083 20.753727 -0.1683197
-12.305054 20.750034 -0.15377808
-12.200577 20.749327 -0.14736938
-12.129288 20.751528 -0.15799713
-12.035797 20.748108 -0.14264679
-11.911049 20.750078 -0.15419006
-11.795662 20.745052 -0.12805939
-11.699356 20.750139 -0.13461304
-11.616005 20.744261 -0.11562729
-11.529907 20.747066 -0.12572861
-11.430138 20.747461 -0.1219902
-11.307846 20.750681 -0.1206131
-11.189255 20.749411 -0.11387634
-11.095749 20.745989 -0.099029541
-10.989548 20.743372 -0.1074028
-10.90123 20.748173 -0.12358475
-10.812729 20.743275 -0.10891724
-10.703773 20.741446 -0.087181091
-10.609695 20.739716 -0.097160339
-10.510696 20.741638 -0.11396408
-10.401978 20.740465 -0.080726624
-10.314453 20.742094 -0.088935852
-10.225876 20.740746 -0.1224556
-7.762291 20.730457 -0.011352539
-7.6892853 20.734308 -0.0097427368
-7.6063004 20.72378 -0.0090370178
-7.5353394 20.70997 -0.0082588196
-3.9700928 20.712879 0.13374329
-3.9212418 20.723457 0.17735672
-3.8107529 20.713638 0.18347168
-3.7013474 20.719416 0.18138885
-3.6358261 20.704876 0.18721771
-15.273476 20.768358 -0.36197281
-15.209488 20.76058 -0.3611908
-15.099457 20.763428 -0.35041809
-12.553841 20.75493 -0.21970367
-12.08651 20.750906 -0.22100449
-11.999016 20.754511 -0.2048645
-11.822189 20.748253 -0.21155548
-11.723343 20.753332 -0.21902466
-11.604836 20.749582 -0.2310524
-11.486885 20.75033 -0.24158859
-11.40255 20.753944 -0.22106171
-11.336205 20.749651 -0.21619034
-11.213852 20.748114 -0.21031952
-11.118286 20.749689 -0.19588852
-11.023636 20.750265 -0.18450165
-10.899788 20.741758 -0.21126938
-10.790146 20.744762 -0.19416809
-10.703598 20.742874 -0.1805687
-10.602539 20.739464 -0.20847321
-10.514969 20.741074 -0.19483566
-10.411888 20.743629 -0.19982529
-10.303497 20.741486 -0.19060898
-7.7761841 20.716124 -0.11392975
-5.0063629 20.752676 -0.0031776428
-4.8848953 20.751005 -0.023513794
-4.8270721 20.744247 -0.018451691
-4.7178192 20.744766 -0.0095405579
-4.6021118 20.758268 -0.011394501
-4.5074768 20.741861 -0.015529633
-4.3692322 20.748251 -0.0050811768
-4.2779617 20.75886 -0.0098114014
-4.1049728 20.741112 -0.0086402893
-3.9761047 20.747543 -0.0020256042
-15.287506 20.781033 -0.47153473
-15.198944 20.767313 -0.46871567
-15.097565 20.762678 -0.44073868
-15.035339 20.762884 -0.41750336
-11.600212 20.748415 -0.33269882
-11.492363 20.7491 -0.31716537
-10.45961 20.740442 -0.30192566
-10.387581 20.743643 -0.3148613
-10.298691 20.744738 -0.29616547
-10.236031 20.741928 -0.25790787
-7.7801208 20.748268 -0.23812103
-5.0675201 20.753426 -0.14912033
-4.998085 20.746069 -0.095947266
-4.9128799 20.7407 -0.095573425
-4.8049469 20.744549 -0.077701569
-4.6936798 20.741753 -0.097236633
-4.6112137 20.742363 -0.066768646
-4.5161362 20.742466 -0.081378937
-4.3987503 20.737204 -0.076686859
-4.2926559 20.737318 -0.068386078
-4.2057953 20.739937 -0.062278748
-4.1123199 20.740204 -0.068946838
-4.0024872 20.733051 -0.058689117
-3.4936447 20.731167 -0.045158386
-3.4026947 20.734102 -0.041904449
-3.3037949 20.739658 -0.027526855
-3.1996765 20.733482 -0.050323486
-3.1088943 20.732822 -0.035568237
-3.020546 20.74143 -0.028903961
-2.9137344 20.735977 -0.036342621
-2.7551575 20.727291 -0.036434174
-2.7104263 20.7386 -0.04082489
-2.6210175 20.739208 -0.036624908
-2.0475082 20.742199 -0.012115479
-1.7092133 20.751734 -0.013019562
-1.570137 20.739134 -0.014064789
-15.265945 20.763016 -0.54482651
-15.199745 20.764732 -0.54896164
-15.099312 20.767641 -0.55953979
-15.038353 20.769041 -0.55669403
-11.653893 20.782213 -0.39463043
-11.595284 20.754257 -0.44183731
-11.486404 20.750864 -0.43703079
-11.429398 20.747225 -0.38062668
-10.481537 20.766123 -0.38524628
-10.414803 20.735344 -0.39439011
-10.323875 20.744444 -0.38912964
-10.244591 20.749121 -0.40930176
-7.7768936 20.718292 -0.2760582
-5.0046005 20.741875 -0.20291901
-4.8886948 20.742685 -0.18426132
-4.7998734 20.740309 -0.19192886
-4.7168503 20.743607 -0.18128967
-4.6046982 20.743778 -0.17393875
-4.4776764 20.741247 -0.19174576
-4.3921814 20.738541 -0.19002533
-4.2994537 20.741631 -0.18020248
-4.2151031 20.736435 -0.18503189
-4.1066132 20.738262 -0.14945984
-3.9845657 20.719999 -0.16696548
-3.4024658 20.731215 -0.15130615
-3.2987518 20.729738 -0.1274147
-3.1861191 20.731253 -0.12889099
-3.1021652 20.725554 -0.12656021
-3.0030899 20.724449 -0.1180191
-2.9004898 20.728516 -0.12768555
-2.7108078 20.723694 -0.12991333
-2.6435089 20.72788 -0.10848999
-2.5106735 20.724329 -0.12975693
-1.6556778 20.735519 -0.029129028
-1.598671 20.72233 -0.085639954
-1.4923553 20.730089 -0.056560516
-1.411499 20.724161 -0.059101105
-1.3086472 20.728785 -0.04549408
-1.2013626 20.727907 -0.049583435
-1.1487656 20.720371 -0.075057983
-0.96450806 20.716547 -0.051460266
-0.90722656 20.715336 -0.086433411
-0.60123444 20.723967 -0.044467926
-0.48782349 20.731806 -0.041740417
-0.39234161 20.728561 -0.043998718
-0.29206085 20.727301 -0.050418854
-0.19763184 20.719543 -0.033706665
-0.074180603 20.720682 -0.043968201
-15.271606 20.774488 -0.6557579
-15.166473 20.771194 -0.65333557
-15.090958 20.773071 -0.68965912
-11.655327 20.762409 -0.58081436
-11.590858 20.7591 -0.55099869
-11.49601 20.755682 -0.54560471
-11.434555 20.749386 -0.51589966
-10.472 20.749214 -0.51399994
-10.380249 20.747808 -0.50571823
-10.295586 20.743416 -0.48117828
-10.230148 20.738131 -0.47884369
-7.7811356 20.762457 -0.41776276
-5.0740891 20.768608 -0.29943848
-5.0059814 20.747803 -0.28951645
-4.8995514 20.742847 -0.29588699
-4.8353424 20.744564 -0.29092026
-4.1272049 20.739431 -0.22657776
-4.0381622 20.745045 -0.22538757
-3.4031601 20.730799 -0.22971344
-3.312355 20.731398 -0.2224617
-3.2073593 20.729757 -0.20669937
-3.0934677 20.725441 -0.21614075
-2.9865952 20.726822 -0.22449112
-2.8795776 20.726507 -0.208992
-2.8066177 20.728703 -0.22039032
-2.4304504 20.7211 -0.24697113
-1.9518509 20.724976 -0.19882965
-1.6997833 20.720852 -0.16830826
-1.5936966 20.720924 -0.19703674
-1.5033951 20.717012 -0.17630005
-1.3952942 20.722191 -0.15758514
-1.2756653 20.724024 -0.17298508
-1.1839294 20.726576 -0.12634277
-1.0975876 20.718754 -0.1772995
-0.50740814 20.714647 -0.13017654
-0.40029907 20.718187 -0.13109589
-0.31356049 20.71583 -0.15025711
-0.20715332 20.717026 -0.14078522
-0.10715485 20.718899 -0.11536026
-0.02406311 20.709585 -0.15992737
-15.260071 20.772243 -0.79176331
-15.191948 20.772408 -0.75230789
-15.066986 20.780376 -0.76184082
-11.641907 20.75242 -0.64939117
-11.57373 20.753601 -0.62493896
-11.47998 20.754051 -0.64426804
-10.469513 20.742304 -0.61247635
-10.386284 20.746244 -0.5798111
-10.267555 20.749893 -0.578228
-10.235825 20.744308 -0.62713623
-7.7804413 20.703495 -0.4583168
-5.0592804 20.740599 -0.35296249
-5.0037613 20.746069 -0.39366913
-4.8988266 20.748638 -0.4182663
-4.8133621 20.742556 -0.37419128
-3.9598846 20.715328 -0.34719849
-1.6594315 20.722746 -0.23340607
-1.5064621 20.729107 -0.25694656
-1.4169464 20.728704 -0.24173737
-1.3053894 20.72422 -0.24175644
-1.1966553 20.720755 -0.24687576
-1.1067886 20.722361 -0.24166107
-0.77594757 20.707918 -0.23284149
-0.551651 20.709949 -0.23682785
-0.45333099 20.72253 -0.24230957
-0.35759735 20.724106 -0.23287964
-0.27959442 20.711739 -0.20508575
-0.20207977 20.72143 -0.23082352
-0.09576416 20.716711 -0.22452164
-15.265297 20.773344 -0.86949921
-15.169662 20.771406 -0.84406662
-15.072571 20.77597 -0.83008575
-11.656067 20.786591 -0.75292969
-11.600922 20.757813 -0.71746445
-11.492157 20.754877 -0.75110245
-10.46489 20.754372 -0.69835663
-10.383385 20.741491 -0.67044067
-10.292564 20.743589 -0.66368484
-7.7829666 20.74366 -0.60696411
-7.2811584 20.718472 -0.59554672
-7.1877899 20.719746 -0.60388184
-5.0626373 20.748774 -0.51018143
-4.9977493 20.74649 -0.50586319
-4.9056549 20.746578 -0.49306107
-4.8243561 20.747746 -0.51366806
-3.9600677 20.743965 -0.47875977
-0.24424744 20.715681 -0.29787827
-0.18130493 20.71792 -0.3086319
-0.10079956 20.713108 -0.34544754
-0.025878906 20.714743 -0.30408096
-15.272476 20.777458 -0.94830704
-15.191055 20.778116 -0.95839691
-15.095245 20.78068 -0.93696213
-11.64167 20.756113 -0.83750153
-11.56321 20.755598 -0.8260231
-11.47554 20.746881 -0.8250618
-10.47036 20.75318 -0.81129456
-10.38282 20.750452 -0.7971611
-10.282684 20.746666 -0.77865601
-5.0436554 20.745777 -0.59355545
-4.9683914 20.745958 -0.59936905
-4.8832474 20.742561 -0.57432175
-4.8096542 20.74576 -0.58919525
-0.2551651 20.721874 -0.43935776
-0.19841766 20.716612 -0.4226532
-0.10090637 20.716196 -0.43033981
-0.024917603 20.712879 -0.44313431
-15.273972 20.784906 -1.0544243
-15.171303 20.778624 -1.0492516
-15.056046 20.7833 -1.0583038
-11.65667 20.782278 -0.93257141
-11.58033 20.760473 -0.9573822
-11.495773 20.755577 -0.9298439
-10.48027 20.753645 -0.89803314
-10.355484 20.757624 -0.91707993
-10.271271 20.750734 -0.89456177
-7.7896805 20.711843 -0.75883102
-6.6994705 20.712166 -0.80089569
-6.5924225 20.697617 -0.71802902
-5.0620422 20.741962 -0.6952858
-4.9897995 20.743656 -0.70070267
-4.9041901 20.742283 -0.69797897
-4.8260574 20.748434 -0.68983841
-0.23514557 20.720873 -0.52368927
-0.16100311 20.713057 -0.52754593
-0.071762085 20.716661 -0.51785278
-0.031517029 20.706036 -0.56745529
-15.273399 20.783194 -1.1734772
-15.169708 20.782883 -1.1444206
-15.064507 20.78978 -1.1660004
-11.654671 20.771231 -1.0557594
-11.558197 20.759466 -1.0446472
-11.472885 20.747063 -1.0115852
-10.480019 20.762756 -1.0064201
-10.390114 20.754009 -0.98453522
-10.283417 20.757399 -1.001564
-7.7885437 20.746496 -0.9118576
-6.6542587 20.692976 -0.80830002
-5.8792648 20.71316 -0.84761047
-5.0771408 20.743141 -0.80488968
-4.9842682 20.745743 -0.80857468
-4.8605194 20.746216 -0.81816101
-3.8674469 20.7309 -0.80366898
-0.24964142 20.733051 -0.63426971
-0.18550873 20.719763 -0.6244812
-0.090812683 20.720341 -0.61458969
-15.285049 20.782841 -1.2674561
-15.180962 20.782047 -1.2588959
-15.075966 20.78359 -1.2568092
-11.63916 20.756948 -1.1736259
-11.576019 20.763647 -1.1473427
-11.46994 20.758152 -1.1111984
-10.445915 20.750708 -1.1034393
-10.353226 20.754795 -1.0926208
-10.263489 20.756897 -1.0834045
-5.051651 20.751129 -0.90103531
-4.9818878 20.739321 -0.89455032
-4.8808594 20.74341 -0.92095184
-4.8210907 20.750114 -0.8847847
-3.8462677 20.733896 -0.89196396
-0.16205597 20.715246 -0.70720291
-0.06968689 20.716362 -0.72057343
-15.260803 20.778315 -1.344635
-15.173912 20.788946 -1.3525314
-15.077316 20.785559 -1.3821068
-11.666908 20.781116 -1.2201271
-11.569221 20.757053 -1.2451668
-11.464729 20.753733 -1.2104187
-10.463242 20.761402 -1.2191238
-10.374771 20.755989 -1.1894493
-10.278435 20.757563 -1.1829987
-7.7909012 20.744658 -1.0565338
-5.0569153 20.741909 -0.98828888
-4.9537735 20.744802 -0.9946022
-4.8539581 20.744892 -1.0155487
-3.84655 20.734478 -0.96752548
-0.076667786 20.722515 -0.84172821
-0.017982483 20.719221 -0.80410767
-15.273125 20.789663 -1.4693146
-15.165649 20.785496 -1.4347916
-15.072792 20.793125 -1.4654884
-14.752739 20.744696 -1.4250641
-14.665443 20.757986 -1.4256058
-14.558907 20.758854 -1.422123
-14.456924 20.764915 -1.425972
-14.350929 20.763958 -1.4243507
-14.252884 20.775206 -1.4318428
-14.175789 20.746532 -1.4267807
-14.074883 20.7551 -1.4308319
-13.9851 20.755703 -1.4229546
-13.866798 20.768459 -1.4241829
-13.75341 20.76837 -1.4273338
-13.666786 20.760994 -1.4255753
-13.56163 20.766043 -1.4319839
-13.461876 20.763439 -1.4282532
-13.368423 20.738703 -1.430603
-13.25843 20.753225 -1.4286575
-13.18293 20.768902 -1.4299431
-13.016373 20.761179 -1.4300041
-12.969055 20.757969 -1.4243088
-12.83728 20.740391 -1.417614
-12.791641 20.751694 -1.4194717
-12.67556 20.759192 -1.4188194
-12.577438 20.776266 -1.418293
-11.640739 20.76111 -1.3247719
-11.565125 20.7633 -1.3400803
-11.46627 20.756033 -1.3355522
-10.471542 20.752001 -1.281971
-10.368721 20.760912 -1.3019676
-10.287689 20.754168 -1.246376
-7.794342 20.743818 -1.1982498
-5.056076 20.745369 -1.1138306
-4.971283 20.742477 -1.0927925
-4.8843002 20.746584 -1.0761719
-3.8499832 20.732067 -1.0402031
-3.7896729 20.729841 -1.0760651
-0.25144958 20.717367 -0.93554306
-0.16303253 20.711967 -0.91837692
-15.25489 20.800705 -1.5860634
-15.154556 20.789574 -1.558136
-15.068123 20.791203 -1.5590477
-14.77195 20.774887 -1.5277863
-14.640724 20.715284 -1.4971352
-14.407654 20.716272 -1.4948044
-12.739822 20.761976 -1.4261131
-12.649666 20.720592 -1.4339333
-12.553841 20.734169 -1.4254913
-12.47937 20.758343 -1.420311
-12.36972 20.751871 -1.423893
-12.253136 20.744198 -1.4203987
-12.160446 20.746794 -1.4187508
-12.06765 20.747059 -1.420433
-11.978622 20.740664 -1.4109192
-11.641815 20.760221 -1.4255447
-11.540535 20.758282 -1.4267616
-11.46553 20.757471 -1.4395866
-10.474274 20.758127 -1.3914604
-10.37188 20.753674 -1.3829651
-10.276123 20.762251 -1.3730354
-7.7941818 20.738466 -1.343338
-6.2772598 20.734333 -1.2860985
-5.8660355 20.714039 -1.2734108
-5.6162872 20.699947 -1.2634926
-5.5705795 20.730736 -1.250824
-5.0713501 20.751539 -1.2174416
-4.9609985 20.741709 -1.1983299
-4.856575 20.743055 -1.1662407
-3.8445816 20.733492 -1.1534081
-3.7498093 20.733736 -1.1406822
-3.709259 20.727619 -1.1982727
-0.22317505 20.717339 -1.0265884
-0.1638031 20.714121 -1.0644913
-0.069587708 20.727715 -1.0671158
-15.258514 20.795141 -1.6722488
-15.157921 20.793707 -1.6731567
-15.064346 20.793303 -1.6738167
-14.948097 20.786777 -1.6511574
-14.756859 20.764481 -1.6853676
-13.892288 20.716185 -1.635479
-13.341965 20.7148 -1.6348038
-11.640205 20.765854 -1.5629044
-11.553146 20.76045 -1.535778
-11.464699 20.763048 -1.5186005
-10.455826 20.770168 -1.5095329
-10.338387 20.761143 -1.4928398
-10.268921 20.75934 -1.4908562
-5.9381561 20.737949 -1.3665237
-5.9020157 20.719252 -1.3297234
-5.7919006 20.745804 -1.3557816
-5.6345215 20.733131 -1.3651772
-5.2846146 20.727882 -1.3009682
-5.0486145 20.744019 -1.2946854
-4.9594574 20.742123 -1.2834892
-4.8565063 20.744688 -1.2943153
-4.4169922 20.730793 -1.3021278
-4.3598709 20.716492 -1.2505646
-3.8364487 20.734768 -1.2923698
-3.7615356 20.726896 -1.247673
-3.6935196 20.694603 -1.2507744
-0.25429535 20.717529 -1.0797348
-0.16696167 20.710705 -1.1306534
-0.061454773 20.717392 -1.1095314
-15.30188 20.802465 -1.8018799
-15.236328 20.794638 -1.7610168
-15.136978 20.794201 -1.7554588
-15.071167 20.792395 -1.7346039
-14.960823 20.775984 -1.8007164
-14.769028 20.751587 -1.7383423
-11.643677 20.762442 -1.6340752
-11.574608 20.760145 -1.6351089
-11.481163 20.758221 -1.6182594
-10.444595 20.757877 -1.5965347
-10.359062 20.762342 -1.6001434
-10.299438 20.767542 -1.5599823
-7.7984085 20.737135 -1.4910851
-6.2741623 20.744982 -1.4415741
-5.9786377 20.741358 -1.4325142
-5.6734238 20.74036 -1.4235992
-5.3500519 20.707958 -1.4230728
-5.0655899 20.745697 -1.3933525
-4.9559402 20.740864 -1.3682594
-4.8602524 20.741798 -1.3855133
-4.4548569 20.710991 -1.3370171
-3.848938 20.751406 -1.374855
-3.7597046 20.72197 -1.3271599
-3.6729889 20.732655 -1.3865891
-0.047691345 20.719776 -1.2184372
-15.252853 20.799824 -1.8721771
-15.162109 20.795406 -1.8499222
-15.068184 20.786482 -1.8330612
-14.971184 20.761431 -1.8671417
-14.770325 20.769228 -1.8679581
-11.643448 20.768219 -1.742466
-11.544571 20.760614 -1.7335968
-11.45517 20.762209 -1.7148895
-10.500771 20.765524 -1.6662445
-10.444626 20.757315 -1.6982689
-10.349144 20.759579 -1.7095261
-10.267799 20.767509 -1.6609192
-7.7986984 20.772797 -1.6466675
-6.2898178 20.732176 -1.5647278
-6.102066 20.708353 -1.5570297
-6.0449982 20.716393 -1.5102882
-5.7001648 20.735573 -1.5161171
-5.3866577 20.701181 -1.486927
-5.0567322 20.751282 -1.5143623
-4.9512863 20.741966 -1.4888344
-4.8580093 20.743225 -1.4854965
-3.8531189 20.736479 -1.4275513
-3.750351 20.728266 -1.4593086
-3.6821365 20.698736 -1.4284744
-2.9335785 20.718191 -1.4567261
-2.8387451 20.706606 -1.4513397
-2.7486038 20.722717 -1.4516068
-2.6615372 20.710342 -1.4535103
-2.5387802 20.708477 -1.4539566
-0.049659729 20.718859 -1.2895546
-15.300652 20.794609 -1.9489326
-15.21862 20.788227 -1.9209938
-15.121857 20.796522 -1.9678955
-15.05378 20.801561 -1.9681168
-14.76915 20.778841 -1.9834785
-11.678177 20.771807 -1.8434334
-11.53717 20.76252 -1.8327332
-11.445587 20.753784 -1.8301277
-10.497513 20.768661 -1.8132248
-10.44297 20.758883 -1.7722511
-10.32431 20.765884 -1.7880173
-7.8135834 20.721415 -1.6982727
-5.0202103 20.741755 -1.6413918
-4.9535675 20.746941 -1.61549
-4.8576736 20.750517 -1.6105576
-3.8510208 20.743576 -1.5322037
-3.7383041 20.734632 -1.574543
-3.6381378 20.728687 -1.5639648
-2.4693298 20.674515 -1.4601746
-1.9823532 20.698393 -1.4477463
-1.7943802 20.701088 -1.4570274
-1.1654739 20.674868 -1.4605789
-1.0372543 20.714981 -1.4596252
-0.9300766 20.751846 -1.4580994
-0.83615112 20.754435 -1.4537354
-0.7889328 20.737238 -1.461071
-15.296593 20.75374 -2.095417
-15.234283 20.762894 -2.0181351
-15.142746 20.764999 -2.0217018
-15.021042 20.760971 -2.021019
-14.988914 20.806332 -2.0188293
-14.816422 20.769911 -2.0150299
-14.759895 20.719343 -2.0257263
-11.634171 20.768219 -1.9414215
-11.528091 20.764257 -1.9421349
-11.471985 20.765974 -1.9021072
-10.415115 20.762428 -1.9353638
-10.326248 20.762039 -1.9301796
-5.0000687 20.744757 -1.7287292
-4.9299393 20.744926 -1.7032051
-4.869194 20.744127 -1.6670151
-3.8543625 20.745743 -1.6810837
-3.767395 20.733671 -1.6519661
-3.6744766 20.719923 -1.6403198
-11.638725 20.735483 -2.0185013
-11.532776 20.745352 -2.0140343
-11.440826 20.736446 -2.0075874
-10.502678 20.767822 -1.948494
-10.458359 20.764696 -2.0129509
-10.340752 20.766859 -2.0180893
-10.260216 20.770809 -1.9848518
-4.9322357 20.747515 -1.7783279
-4.8562241 20.747698 -1.791626
-3.8218765 20.729197 -1.7706604
-3.7164154 20.726192 -1.7258682
-3.6385574 20.730877 -1.7480965
-15.296844 20.775877 -2.2259941
-10.507294 20.780996 -2.097744
-10.439064 20.760695 -2.09132
-10.337753 20.762262 -2.0981979
-10.258194 20.765945 -2.1258698
-7.8054733 20.726641 -1.9526405
-4.3735046 20.716223 -1.9044724
-3.7385483 20.741369 -1.8046951
-15.297356 20.777037 -2.3791084
-10.485649 20.76498 -2.1730347
-10.408401 20.768665 -2.1922836
-10.310196 20.772243 -2.1957741
-7.7965012 20.748257 -2.1028976
-4.8827133 20.750486 -1.9596786
-4.3167801 20.727026 -1.9504662
-3.861496 20.730066 -1.9636955
-3.7425232 20.727209 -1.9566116
-10.431076 20.766859 -2.2861519
-10.331573 20.768927 -2.2840996
-10.260017 20.773102 -2.2700233
-4.9818192 20.74206 -2.0993118
-4.8910828 20.745655 -2.0900574
-4.849144 20.754442 -2.0585365
-3.8251953 20.707333 -2.0536461
-3.7330551 20.713594 -2.0460091
-3.6415863 20.70785 -2.0300713
-3.5460434 20.712286 -2.0499992
-3.4267578 20.717104 -2.0480576
-15.298195 20.77319 -2.5242348
-10.428352 20.777939 -2.3750992
-10.349792 20.774612 -2.3893089
-10.260422 20.785263 -2.4251251
-7.9865036 20.78331 -2.325798
-5.1036606 20.75168 -2.1887169
-5.0264053 20.746853 -2.1954651
-4.9167404 20.74955 -2.2023773
-4.8554001 20.748606 -2.1918526
-15.299232 20.762339 -2.6643677
-10.515434 20.769489 -2.5433311
-10.394768 20.775896 -2.4749641
-10.322937 20.775593 -2.4829063
-7.8154449 20.777683 -2.4367599
-5.0211487 20.750431 -2.2951698
-4.9203873 20.750004 -2.3052406
-15.300606 20.783491 -2.8054962
-11.188354 20.785505 -2.6394234
-11.12291 20.742474 -2.6421242
-11.02346 20.760454 -2.6365547
-10.413559 20.776585 -2.5787048
-10.291397 20.775557 -2.5813446
-10.261322 20.698481 -2.6343689
-10.058784 20.735098 -2.6270905
-9.6871872 20.785978 -2.6167603
-7.9525986 20.699312 -2.4727592
-7.8041916 20.737673 -2.4764214
-5.0841293 20.74284 -2.4281807
-5.0203018 20.744528 -2.3938751
-4.9206772 20.746084 -2.3818016
-4.8495255 20.752748 -2.3557434
-11.087601 20.703125 -2.6969299
-10.301033 20.725658 -2.6397667
-10.214973 20.736641 -2.6573601
-10.139175 20.744957 -2.6399651
-10.008835 20.746391 -2.6373062
-9.9136658 20.744577 -2.6355095
-9.7926178 20.746115 -2.6305733
-9.7092133 20.744591 -2.6355934
-9.6167908 20.724691 -2.6343117
-9.5178757 20.751768 -2.6407547
-9.4138412 20.74848 -2.635704
-9.3494949 20.723534 -2.637764
-9.1373672 20.739948 -2.635498
-9.0281296 20.741636 -2.633007
-8.9098892 20.728962 -2.6370468
