# .PCD v0.7 - Point Cloud Data file format
VERSION 0.7
FIELDS x y z
SIZE 4 4 4
TYPE F F F
COUNT 1 1 1
WIDTH 1398
HEIGHT 1
VIEWPOINT 0 0 0 1 0 0 0
POINTS 1398
DATA ascii
5.9240379 4.9903574 -1.8626451e-009
5.9005995 5.0354285 -1.8626451e-009
5.7325926 5.0260887 -9.3132257e-009
5.5523415 5.0138493 -2.7939675e-008
5.4951005 5.0452309 -3.9115548e-008
5.3465781 5.0450315 -5.7742e-008
5.3415332 5.0963554 -5.7742e-008
5.3611603 5.1579313 -7.2643161e-008
5.3787084 5.2178583 -5.7742e-008
5.3491302 5.2595754 -5.9604645e-008
5.3646712 5.3181767 -5.7742e-008
5.3371139 5.3624897 -5.4016709e-008
5.825727 5.5864806 -2.2351742e-008
5.8977633 5.6642146 -3.1664968e-008
5.9523888 5.7344551 -3.1664968e-008
6.0316176 5.8146214 -4.4703484e-008
6.0492764 5.8726587 -3.7252903e-008
6.0464134 5.9237385 -4.4703484e-008
6.0754013 5.9862366 -1.3038516e-008
6.1331396 6.0559368 -2.0489097e-008
6.7670674 6.3210983 -1.8626451e-009
6.8073554 6.3855205 -1.8626451e-009
6.8365183 6.4464512 -1.8626451e-009
6.8738055 6.5095201 -1.8626451e-009
6.9101329 6.5703473 -1.8626451e-009
6.9536705 6.6348782 -1.8626451e-009
6.9960713 6.6987338 -1.8626451e-009
7.0282226 6.7597485 -1.8626451e-009
7.0809484 6.8267708 -1.8626451e-009
7.1142693 6.8862448 -1.8626451e-009
7.1577392 6.9504533 -1.8626451e-009
7.193069 7.0112524 0
7.2232151 7.07094 -1.8626451e-009
7.2791166 7.1377482 0
7.302104 7.1927848 -1.8626451e-009
7.3385005 7.2539353 -1.8626451e-009
7.3800125 7.3158717 -1.8626451e-009
7.4266596 7.3798656 -1.8626451e-009
7.4702339 7.4421816 -1.8626451e-009
7.4964151 7.4982734 -1.8626451e-009
7.5389762 7.5592923 -1.8626451e-009
7.5691729 7.6180344 0
7.6066737 7.6773214 -1.8626451e-009
7.6461763 7.7379322 -1.8626451e-009
7.6743503 7.7940803 -1.8626451e-009
7.7149739 7.8540974 -1.8626451e-009
7.7534161 7.9143577 -1.8626451e-009
7.7919779 7.9739943 -1.8626451e-009
7.8202753 8.02952 -1.8626451e-009
7.8567567 8.0875101 -1.8626451e-009
7.9014339 8.1479626 0
7.9369402 8.2071934 0
7.9816709 8.2666988 -1.8626451e-009
8.0089521 8.3209267 0
8.0516386 8.3813229 -1.8626451e-009
8.0881777 8.4383659 -1.8626451e-009
8.1236677 8.4963264 0
8.1560822 8.5526104 -3.7252903e-009
8.1864958 8.6075697 -1.8626451e-009
8.2281494 8.6653996 -1.8626451e-009
8.2647572 8.722765 -1.8626451e-009
8.2889833 8.7765865 -1.8626451e-009
8.3326998 8.834796 -1.8626451e-009
8.3601055 8.888401 -1.8626451e-009
8.347188 8.9315853 -3.7252903e-009
8.2888947 8.9638863 -7.4505806e-009
8.287364 9.0105867 -1.6763806e-008
8.3012009 9.0609188 -1.4901161e-008
8.2997179 9.1066742 -1.3038516e-008
8.3043175 9.1554604 -1.3038516e-008
8.2872744 9.1978855 -2.2351742e-008
8.292923 9.2457542 -1.8626451e-008
8.2862053 9.2913456 -2.2351742e-008
8.2939091 9.3395929 -3.1664968e-008
8.2934427 9.3866463 -2.4214387e-008
8.2929049 9.4333754 -4.0978193e-008
8.3191757 9.4863071 -4.4703484e-008
8.3145161 9.5322762 -5.4016709e-008
8.3264685 9.5806599 -3.5390258e-008
8.3538046 9.6339436 -3.5390258e-008
8.3326406 9.6756096 -5.0291419e-008
8.3207359 9.7200909 -2.0489097e-008
8.3160782 9.7660618 -4.4703484e-008
8.3093939 9.8094387 -3.3527613e-008
8.2985525 9.8542728 -5.5879354e-008
8.2939606 9.9005661 -5.4016709e-008
8.3058605 9.949894 -5.4016709e-008
8.3383818 10.004288 -6.519258e-008
8.2986565 10.041271 -5.4016709e-008
8.3022404 10.08876 -5.5879354e-008
8.2933931 10.13365 -6.519258e-008
8.2898493 10.179026 -8.0093741e-008
8.8094244 10.336706 -2.6077032e-008
8.8544722 10.390535 -3.7252903e-008
8.8550529 10.43667 -1.8626451e-008
8.9373522 10.499245 -3.7252903e-008
8.986536 10.555107 -1.4901161e-008
9.0326481 10.609287 -3.5390258e-008
9.0167274 10.651117 -4.4703484e-008
9.0256042 10.697824 -3.1664968e-008
9.0727291 10.753304 -5.4016709e-008
9.1126575 10.806349 -5.0291419e-008
9.1142883 10.851564 -4.6566129e-008
9.1273422 10.898085 -4.0978193e-008
9.750741 11.107323 -1.8626451e-009
9.7865324 11.158339 0
9.8110771 11.206484 -3.7252903e-009
9.8573465 11.25783 0
9.870471 11.304672 0
9.9073811 11.355093 -1.8626451e-009
9.9328661 11.404213 -1.8626451e-009
9.9698839 11.45274 -3.7252903e-009
9.9985495 11.501646 -1.8626451e-009
10.030271 11.550957 -5.5879354e-009
10.057873 11.599508 -1.8626451e-009
10.078296 11.646896 -1.8626451e-009
10.117373 11.695805 0
10.149149 11.744171 -1.8626451e-009
10.1903 11.794729 -1.8626451e-009
10.215894 11.841955 -1.8626451e-009
10.239372 11.889751 -1.8626451e-009
10.270209 11.937141 -5.5879354e-009
10.297865 11.984747 -5.5879354e-009
10.330758 12.032518 -1.8626451e-009
10.368769 12.081076 -5.5879354e-009
10.397489 12.129034 1.8626451e-009
10.410769 12.17304 -5.5879354e-009
10.442594 12.220459 -5.5879354e-009
10.47961 12.26899 -5.5879354e-009
10.510446 12.31638 -7.4505806e-009
10.54334 12.364149 -3.7252903e-009
10.558613 12.408213 0
10.593692 12.45574 -1.8626451e-009
10.615214 12.501263 -1.8626451e-009
10.662587 12.550743 -5.5879354e-009
10.683049 12.595915 -1.8626451e-009
10.695265 12.639568 -1.8626451e-009
10.736509 12.686964 -5.5879354e-009
10.761158 12.733217 -5.5879354e-009
10.798281 12.779856 -1.8626451e-009
10.822983 12.825165 -1.8626451e-009
10.552573 12.832535 -1.4901161e-008
10.54294 12.873613 -3.1664968e-008
10.540554 12.91618 -3.5390258e-008
10.549591 12.960051 -2.7939675e-008
10.537846 13.001692 -3.5390258e-008
10.549047 13.04405 -4.6566129e-008
10.573697 13.090303 -3.7252903e-008
10.575488 13.132683 -2.4214387e-008
10.587719 13.177607 -4.6566129e-008
10.568723 13.21776 -4.0978193e-008
10.577815 13.260683 -4.0978193e-008
10.571304 13.30249 -6.146729e-008
10.564674 13.344921 -4.4703484e-008
10.584191 13.38912 -4.6566129e-008
10.595288 13.433367 -3.1664968e-008
10.568051 13.472004 -4.6566129e-008
10.796597 13.538181 -2.9802322e-008
10.836899 13.584604 -4.8428774e-008
10.860591 13.628616 -2.7939675e-008
10.556379 13.641569 -4.4703484e-008
10.559234 13.684299 -7.6368451e-008
10.551661 13.725756 -4.2840838e-008
10.551333 13.768702 -5.5879354e-008
10.925879 13.844482 -2.2351742e-008
11.032765 13.896448 -2.6077032e-008
11.084645 13.941336 -5.0291419e-008
11.134089 14.029734 -3.5390258e-008
11.189823 14.11738 -3.9115548e-008
11.265737 14.1646 -2.4214387e-008
11.274879 14.206577 -2.9802322e-008
11.28502 14.248581 -4.0978193e-008
11.288919 14.290396 -4.2840838e-008
11.288701 14.33145 -3.7252903e-008
11.328044 14.375629 -4.8428774e-008
11.367457 14.420132 -2.7939675e-008
12.007558 14.70443 -3.7252903e-009
12.035528 14.746363 -7.4505806e-009
12.054192 14.786425 -5.5879354e-009
12.073815 14.82873 0
12.101719 14.870338 -5.5879354e-009
12.126633 14.911861 -9.3132257e-009
12.159843 14.953957 -9.3132257e-009
12.193165 14.99416 -3.7252903e-009
12.220072 15.03574 -5.5879354e-009
12.235623 15.07634 -1.8626451e-009
12.262601 15.118244 -1.8626451e-009
12.293736 15.158691 -1.8626451e-009
12.311402 15.198723 -9.3132257e-009
12.346731 15.240253 -1.8626451e-009
12.36646 15.280668 -5.5879354e-009
12.393365 15.322247 -5.5879354e-009
12.423506 15.362667 -5.5879354e-009
12.434939 15.402508 -3.7252903e-009
12.471313 15.443119 -5.5879354e-009
12.483744 15.482988 -5.5879354e-009
12.520186 15.523922 -5.5879354e-009
12.539844 15.564014 -1.8626451e-009
12.574283 15.603622 -5.5879354e-009
12.595006 15.644064 -5.5879354e-009
12.617846 15.683939 -5.5879354e-009
12.641748 15.724167 0
12.668761 15.763855 -3.7252903e-009
12.689663 15.802727 -5.5879354e-009
12.72504 15.843309 -1.8626451e-009
12.736401 15.88283 -5.5879354e-009
12.773894 15.922846 -5.5879354e-009
12.7905 15.962528 -1.8626451e-009
2.6690915 -0.027924538 0
2.7105589 0.054226637 -1.8626451e-009
2.7713192 0.14582217 0
2.8280647 0.23476446 1.8626451e-009
2.8849089 0.32181561 1.8626451e-009
2.9355795 0.40773118 3.7252903e-009
2.9984534 0.49875665 1.8626451e-009
3.0481091 0.58337343 1.8626451e-009
3.1019082 0.67001581 1.8626451e-009
3.1403878 0.74733144 1.8626451e-009
3.2064352 0.83814484 0
3.1144657 0.85613161 -5.5879354e-009
2.9785733 0.85347897 -2.2351742e-008
2.8254111 0.8439815 -7.4505806e-009
2.781333 0.88272041 -3.3527613e-008
2.7810633 0.94398934 -2.6077032e-008
2.7797899 1.0039623 -3.5390258e-008
2.7805164 1.0652599 -2.9802322e-008
2.7833757 1.1272616 -8.0093741e-008
2.7852199 1.1879635 -4.6566129e-008
2.7757354 1.2442055 -8.0093741e-008
2.7877939 1.3099669 -5.9604645e-008
2.7875321 1.3712368 -6.8917871e-008
2.791383 1.4332662 -4.8428774e-008
2.7860727 1.4893188 -2.9802322e-008
2.7939954 1.5530516 -8.5681677e-008
2.7876546 1.6112916 -9.3132257e-008
2.792506 1.6733496 -6.3329935e-008
2.7851467 1.7302918 -6.8917871e-008
4.1674366 2.8450184 -2.0489097e-008
4.081419 2.8666582 -1.6763806e-008
4.702229 3.2365952 1.8626451e-009
4.7696486 3.3208137 0
4.7901144 3.3852553 -1.8626451e-009
4.8494501 3.4651194 0
4.8884225 3.5351892 -1.8626451e-009
4.9365473 3.6099668 0
4.971333 3.6789567 -1.8626451e-009
5.0378647 3.7612545 -1.8626451e-009
5.072772 3.8296199 0
5.1209502 3.9034519 -1.8626451e-009
5.1772637 3.9806926 1.8626451e-009
5.2162385 4.0507641 -1.8626451e-009
5.2583413 4.1215649 -1.8626451e-009
5.2952414 4.1899872 0
5.3537378 4.2669849 -1.8626451e-009
5.3937659 4.3361378 -1.8626451e-009
5.436861 4.4069672 -1.8626451e-009
5.4830837 4.4785266 -1.8626451e-009
5.5242271 4.5470858 0
5.5673256 4.6179152 0
5.60953 4.6868248 0
5.6629486 4.7608204 0
5.7081614 4.8310833 -1.8626451e-009
5.7360315 4.8941755 -1.8626451e-009
5.7956328 4.9693098 0
5.8203087 5.0313492 -1.8626451e-009
5.6565061 5.0243597 -1.1175871e-008
5.4916415 5.0170193 -1.3038516e-008
5.3902884 5.032814 -2.6077032e-008
5.3299356 5.0647335 -5.9604645e-008
5.340292 5.1222253 -6.7055225e-008
5.3343182 5.1738458 -4.8428774e-008
5.3498049 5.2333927 -4.8428774e-008
5.3582063 5.2886124 -4.8428774e-008
5.3541732 5.3412323 -8.0093741e-008
5.4220858 5.4182072 -3.9115548e-008
5.4252486 5.4732628 -6.8917871e-008
5.8174319 5.6623502 -3.9115548e-008
5.7971778 5.7072053 -3.1664968e-008
5.7921844 5.7575822 -2.9802322e-008
5.8847384 5.8422709 -2.7939675e-008
5.9229131 5.907259 -3.5390258e-008
5.9878058 5.9816122 -2.9802322e-008
6.0476198 6.0529618 -3.5390258e-008
6.0406895 6.1023378 -3.1664968e-008
6.0644751 6.1624565 -4.4703484e-008
6.1201668 6.233048 -3.9115548e-008
6.6874261 6.4718037 -3.7252903e-009
6.7771726 6.550086 -1.8626451e-009
6.8277812 6.6176744 -1.8626451e-009
6.8599343 6.678689 -1.8626451e-009
6.8920851 6.7397027 -1.8626451e-009
6.9468708 6.8071051 -1.8626451e-009
6.9791279 6.8662271 -1.8626451e-009
7.0195389 6.930027 0
7.0702558 6.9957247 0
7.0890675 7.0509496 -1.8626451e-009
7.144918 7.1187034 -1.8626451e-009
7.168983 7.1753621 -1.8626451e-009
7.2124906 7.2373538 0
7.261198 7.3017278 0
7.2996554 7.3632569 -1.8626451e-009
7.326725 7.4212694 0
7.3662157 7.4806099 -1.8626451e-009
7.4129171 7.5436578 -1.8626451e-009
7.4349227 7.5999365 -1.8626451e-009
7.48875 7.6650968 -1.8626451e-009
7.5189996 7.7228918 -1.8626451e-009
7.5482912 7.7784472 -1.8626451e-009
7.5857348 7.8386784 -1.8626451e-009
7.6304245 7.9003992 -1.8626451e-009
7.6534824 7.955761 -1.8626451e-009
7.6858983 8.0120449 -1.8626451e-009
7.7439008 8.0770168 -1.8626451e-009
7.7752695 8.1342192 -1.8626451e-009
7.8076324 8.1914501 -1.8626451e-009
7.8564472 8.2539291 -1.8626451e-009
7.8878489 8.308917 0
7.9181552 8.3657684 -1.8626451e-009
7.9505696 8.4220524 -5.5879354e-009
7.9952483 8.4825039 -1.8626451e-009
8.0184097 8.5359735 -1.8626451e-009
8.0695276 8.5975876 -1.8626451e-009
8.1081276 8.6550102 -1.8626451e-009
8.138485 8.7109146 -1.8626451e-009
8.1833363 8.7697992 -1.8626451e-009
8.2178125 8.8264618 0
8.234828 8.8765783 -1.8626451e-009
8.2776194 8.9350834 0
8.2914572 8.9854136 -5.5879354e-009
8.3002424 9.0352821 -5.5879354e-009
8.2924585 9.0805225 -5.5879354e-009
8.2899151 9.125927 -5.5879354e-009
8.2841921 9.1715469 -1.8626451e-009
8.3011522 9.2226086 -1.1175871e-008
8.2986765 9.2683372 -1.6763806e-008
8.2950144 9.3143358 -2.2351742e-008
8.2883472 9.3589821 -2.2351742e-008
8.2908678 9.4061184 -3.1664968e-008
8.294467 9.4548759 -3.1664968e-008
8.2969885 9.5020142 -2.2351742e-008
8.2861977 9.5459003 -1.4901161e-008
8.2939739 9.5944729 -1.6763806e-008
8.2944345 9.6412277 -4.0978193e-008
8.3177023 9.6928062 -2.4214387e-008
8.3109846 9.7383976 -2.6077032e-008
8.3290634 9.788866 -2.9802322e-008
8.3750696 9.8449402 -4.2840838e-008
8.3291063 9.8817329 -5.2154064e-008
8.3037548 9.9223156 -5.0291419e-008
8.3063412 9.9697762 -6.7055225e-008
8.2985592 10.015018 -4.0978193e-008
8.3136349 10.064131 -5.0291419e-008
8.291357 10.106394 -6.8917871e-008
8.2991276 10.154963 -5.7742e-008
8.2934599 10.199636 -5.2154064e-008
8.2794905 10.243738 -2.9802322e-008
8.2976265 10.293261 -5.0291419e-008
8.2898388 10.338501 -8.0093741e-008
8.2231321 10.370852 -5.9604645e-008
8.8038177 10.536423 -4.0978193e-008
8.8520098 10.592255 -3.1664968e-008
8.9462929 10.700998 -5.0291419e-008
9.0141478 10.759651 -1.6763806e-008
9.0230446 10.807625 -2.2351742e-008
9.0236092 10.852489 -3.5390258e-008
9.0417957 10.901066 -2.0489097e-008
9.1013908 10.95693 -4.2840838e-008
9.6381941 11.104403 -5.5879354e-009
9.675106 11.154823 -1.8626451e-009
9.7068462 11.205404 -3.7252903e-009
9.7281952 11.252497 -3.7252903e-009
9.7464323 11.300125 -3.7252903e-009
9.7906618 11.35236 -5.5879354e-009
9.8171959 11.40056 -5.5879354e-009
9.8645315 11.452257 0
9.9035034 11.503057 -1.8626451e-009
9.9259176 11.550499 -1.8626451e-009
9.9400892 11.596426 -3.7252903e-009
9.9842463 11.648336 -5.5879354e-009
10.011901 11.695944 0
10.054051 11.746531 0
10.076587 11.793348 -3.7252903e-009
10.105185 11.84193 -3.7252903e-009
10.131845 11.889505 -3.7252903e-009
10.160615 11.93652 -1.8626451e-009
10.192391 11.984886 0
10.224165 12.033251 -1.8626451e-009
10.257128 12.081345 -1.8626451e-009
10.285851 12.129303 -1.8626451e-009
10.308371 12.174854 -3.7252903e-009
10.333963 12.222082 -1.8626451e-009
10.374104 12.271341 1.8626451e-009
10.410179 12.318897 -3.7252903e-009
10.427458 12.364285 -5.5879354e-009
10.464528 12.411867 -3.7252903e-009
10.492233 12.458529 -1.8626451e-009
10.521006 12.505541 -3.7252903e-009
10.544591 12.551441 -3.7252903e-009
10.582727 12.599379 -1.8626451e-009
10.606366 12.644333 -1.8626451e-009
10.638247 12.690807 0
10.66183 12.73671 -1.8626451e-009
10.689593 12.782425 -1.8626451e-009
10.732901 12.8302 -1.8626451e-009
10.545711 12.848066 -9.3132257e-009
10.545385 12.891012 -1.6763806e-008
10.541935 12.933228 -2.4214387e-008
10.538553 12.975767 -2.7939675e-008
10.540341 13.018147 -3.1664968e-008
10.545188 13.060932 -1.4901161e-008
10.545981 13.103285 -2.6077032e-008
10.541533 13.145473 -2.0489097e-008
10.55263 13.18972 -9.3132257e-009
10.559609 13.23321 -2.0489097e-008
10.573938 13.276299 -4.6566129e-008
10.571552 13.318863 -4.6566129e-008
10.5754 13.361624 -4.8428774e-008
10.567776 13.404024 -5.0291419e-008
10.569566 13.446405 -2.0489097e-008
10.564108 13.487295 -6.146729e-008
10.704276 13.544409 -4.0978193e-008
10.749695 13.591618 -4.2840838e-008
10.758786 13.634541 -2.7939675e-008
10.581651 13.660303 -3.1664968e-008
10.587617 13.702496 -3.9115548e-008
10.566506 13.743216 -5.4016709e-008
10.587019 13.787441 -4.6566129e-008
10.593997 13.830931 -5.4016709e-008
10.58843 13.873713 -3.9115548e-008
10.561139 13.913296 -8.1956387e-008
10.490045 13.949617 -9.8720193e-008
11.032301 14.036928 -3.3527613e-008
11.070526 14.081703 -2.4214387e-008
11.112775 14.167667 -2.9802322e-008
11.146874 14.211681 -4.4703484e-008
11.16957 14.255665 -4.2840838e-008
11.202677 14.299652 -4.2840838e-008
11.279572 14.345631 -3.1664968e-008
11.288716 14.387609 -3.9115548e-008
11.279083 14.428686 -3.1664968e-008
11.285046 14.470879 -3.9115548e-008
11.291077 14.513393 -3.9115548e-008
11.350245 14.557554 -4.6566129e-008
11.356333 14.599125 -3.1664968e-008
11.367534 14.641481 -7.4505806e-009
12.025832 14.880547 -1.8626451e-009
12.052807 14.922447 -3.7252903e-009
12.071419 14.963457 -3.7252903e-009
12.104685 15.004606 -1.8626451e-009
12.11699 15.045097 -3.7252903e-009
12.152265 15.087574 -1.8626451e-009
12.174054 15.128366 -3.7252903e-009
12.208314 15.169542 -5.5879354e-009
12.224862 15.210173 -5.5879354e-009
12.25289 15.251158 -5.5879354e-009
12.277858 15.291737 -1.8626451e-009
12.296469 15.332745 -1.8626451e-009
12.316074 15.373781 -7.4505806e-009
12.352573 15.413769 -1.8626451e-009
12.378536 15.454374 -3.7252903e-009
12.40026 15.494844 -5.5879354e-009
12.425226 15.535423 -1.8626451e-009
12.454369 15.575813 -1.8626451e-009
12.479321 15.615122 -5.5879354e-009
12.507349 15.656107 -3.7252903e-009
12.526011 15.696169 -1.8626451e-009
12.549915 15.736395 -3.7252903e-009
12.572825 15.776592 -5.5879354e-009
12.590472 15.815357 -3.7252903e-009
12.632089 15.856134 -5.5879354e-009
12.655047 15.895386 -1.8626451e-009
12.680947 15.935669 -1.8626451e-009
2.5489907 0.00091266632 1.8626451e-009
2.5985475 0.087422132 0
2.6533656 0.1766336 0
2.6999495 0.25957167 0
2.7607591 0.35021961 -1.8626451e-009
2.8164976 0.43786597 1.8626451e-009
2.8610666 0.51948071 0
2.92188 0.61012745 0
2.9686425 0.69149834 -1.8626451e-009
3.0356371 0.78328526 1.8626451e-009
3.0577888 0.85472757 -1.8626451e-009
2.9230332 0.85275036 -7.4505806e-009
2.7840843 0.84969026 -2.4214387e-008
2.7879927 0.91077292 -2.2351742e-008
2.7855945 0.97134161 -2.6077032e-008
2.787389 1.0329893 -4.2840838e-008
2.778965 1.0895824 -2.6077032e-008
2.7818279 1.1515821 -4.0978193e-008
2.7826643 1.210989 -2.9802322e-008
2.7773125 1.2692568 -3.9115548e-008
2.794389 1.337696 -2.7939675e-008
2.7757697 1.3904989 -5.5879354e-008
2.785749 1.4546132 -2.9802322e-008
2.7845252 1.5136395 -6.519258e-008
2.7843165 1.5739634 -7.2643161e-008
2.7840998 1.6342876 -7.4505806e-008
2.7858758 1.6946671 -2.9802322e-008
2.7846632 1.7549636 -4.0978193e-008
2.7844925 1.8130735 -9.1269612e-008
2.7832081 1.8730456 -6.7055225e-008
2.7748413 1.9286909 -4.0978193e-008
2.7644293 1.9852266 -6.7055225e-008
4.0194921 2.8638201 -2.4214387e-008
3.9529943 2.8923869 -2.0489097e-008
4.5663381 3.2020564 1.8626451e-009
4.5847411 3.2661176 0
4.6481614 3.3489549 1.8626451e-009
4.6890216 3.4209735 0
4.7371469 3.4957514 -1.8626451e-009
4.7801385 3.5684719 0
4.8241935 3.6415453 0
4.8723197 3.7163227 -1.8626451e-009
4.9152985 3.7877746 0
4.9726782 3.8653672 0
5.0034599 3.9329741 0
5.058713 4.0098639 0
5.1140838 4.0861306 0
5.1428456 4.151144 -1.8626451e-009
5.1910219 4.2249751 -1.8626451e-009
5.2381911 4.2975092 -1.8626451e-009
5.2915545 4.3724508 0
5.3244543 4.4394913 0
5.3727217 4.5101624 0
5.4128151 4.579639 -1.8626451e-009
5.460032 4.651227 -1.8626451e-009
5.5123878 4.7248707 -1.8626451e-009
5.5452709 4.7906418 -1.8626451e-009
5.5895367 4.859931 -1.8626451e-009
5.6265445 4.9264622 -1.8626451e-009
5.6821589 5.001483 -1.8626451e-009
5.6177225 5.0304294 -9.3132257e-009
5.442605 5.0202465 -2.0489097e-008
5.3023281 5.0215645 -2.6077032e-008
5.3034968 5.0765648 -3.9115548e-008
5.3415642 5.1434469 -3.1664968e-008
5.341722 5.1971493 -4.6566129e-008
5.3398156 5.250473 -2.6077032e-008
5.334826 5.3008504 -3.9115548e-008
5.3493023 5.3590999 -3.9115548e-008
5.3412671 5.4103394 -3.5390258e-008
5.3947239 5.4821205 -5.7742e-008
5.4277282 5.5472689 -6.519258e-008
5.6362715 5.6715741 -4.6566129e-008
5.6877203 5.7420287 -3.5390258e-008
5.3358912 5.6742301 -6.519258e-008
5.3175373 5.7223024 -8.1956387e-008
5.3300061 5.7792273 -5.7742e-008
5.848629 6.0057211 -3.9115548e-008
5.8950667 6.0734973 -1.1175871e-008
5.9763408 6.1527762 -4.0978193e-008
6.0495472 6.2289691 -3.1664968e-008
6.0508056 6.2808084 -4.2840838e-008
6.0581951 6.3347316 -4.2840838e-008
6.0934176 6.3974214 -3.1664968e-008
6.1305819 6.4611139 -4.8428774e-008
6.7719784 6.7192259 0
6.8041286 6.7802396 0
6.8414516 6.841095 0
6.8818631 6.9048958 -1.8626451e-009
6.9161286 6.965343 -3.7252903e-009
6.9605951 7.0295787 -1.8626451e-009
7.0031209 7.0928135 0
7.0312405 7.1499066 -1.8626451e-009
7.0685792 7.2120314 -1.8626451e-009
7.1130962 7.275321 -1.8626451e-009
7.1432934 7.334064 0
7.1930666 7.398788 0
7.2181125 7.4542055 -1.8626451e-009
7.2688832 7.5189562 0
7.3032022 7.5784574 -1.8626451e-009
7.3467779 7.6407747 -1.8626451e-009
7.3883429 7.7017655 -1.8626451e-009
7.4155188 7.7578845 -1.8626451e-009
7.4580836 7.8189039 -1.8626451e-009
7.4935198 7.8778114 0
7.5298986 7.9376926 -1.8626451e-009
7.5674505 7.9960327 -1.8626451e-009
7.5977511 8.0528831 -1.8626451e-009
7.6434426 8.1146336 -1.8626451e-009
7.6809397 8.1739178 -1.8626451e-009
7.7276769 8.2347498 -1.8626451e-009
7.7610912 8.2910633 -1.8626451e-009
7.8068995 8.3521891 -1.8626451e-009
7.8278794 8.4059029 -1.8626451e-009
7.863369 8.4638634 -1.8626451e-009
7.9080987 8.5233688 -1.8626451e-009
7.9447083 8.5807352 0
7.9760566 8.6366692 1.8626451e-009
8.0249109 8.6969337 0
8.0532579 8.7515144 -1.8626451e-009
8.089797 8.8085575 -1.8626451e-009
8.1222658 8.8638954 0
8.1547356 8.9192333 -1.8626451e-009
8.1882868 8.9761925 -1.8626451e-009
8.2226782 9.0312634 0
8.2614708 9.0883865 0
8.2878122 9.1416397 0
8.290329 9.1887779 -5.5879354e-009
8.2929211 9.2362385 -5.5879354e-009
8.2871962 9.2818584 -5.5879354e-009
8.2887211 9.3289661 -9.3132257e-009
8.2923746 9.3767786 -1.3038516e-008
8.2980204 9.4246464 -1.4901161e-008
8.2892885 9.4689121 -1.8626451e-008
8.2897501 9.5156727 -2.0489097e-008
8.2850914 9.5616417 -2.0489097e-008
8.287735 9.6081562 -1.8626451e-008
8.2964525 9.6577015 -3.1664968e-008
8.288722 9.7019958 -3.1664968e-008
8.290246 9.7491055 -5.2154064e-008
8.2918386 9.7965374 -4.0978193e-008
8.3140402 9.8477631 -2.7939675e-008
8.3114958 9.8931694 -3.3527613e-008
8.3192043 9.9414158 -3.1664968e-008
8.3392906 9.9932079 -4.2840838e-008
8.3274364 10.036745 -3.9115548e-008
8.3166475 10.080631 -3.3527613e-008
8.308918 10.124926 -6.7055225e-008
8.2949505 10.169027 -4.6566129e-008
8.3057823 10.218006 -4.4703484e-008
8.3000603 10.263624 -6.8917871e-008
8.3069448 10.310276 -6.146729e-008
8.3032827 10.356274 -7.4505806e-008
8.3079309 10.404116 -7.6368451e-008
8.3000822 10.449032 -7.6368451e-008
8.2913504 10.493298 -5.5879354e-008
8.293993 10.539812 -4.0978193e-008
8.7972422 10.686867 -3.3527613e-008
8.8381701 10.739939 -2.2351742e-008
8.87286 10.792818 -4.4703484e-008
8.9179058 10.846649 -4.0978193e-008
8.9723864 10.901726 -1.8626451e-008
9.0205612 10.956287 -3.3527613e-008
9.5055103 11.093927 -3.7252903e-009
9.5662241 11.149197 0
9.5772171 11.195337 -5.5879354e-009
9.6285553 11.248415 -3.7252903e-009
9.6665287 11.299189 0
9.6796494 11.346031 -1.8626451e-009
9.7123165 11.396317 -3.7252903e-009
9.7410355 11.444275 -1.8626451e-009
9.7779474 11.494696 -1.8626451e-009
9.8086071 11.543655 -1.8626451e-009
9.8413935 11.593319 -3.7252903e-009
9.8649406 11.641436 -5.5879354e-009
9.8956518 11.689449 -3.7252903e-009
9.9314966 11.739521 -1.8626451e-009
9.9539814 11.787287 -3.7252903e-009
9.9930038 11.837139 -5.5879354e-009
10.035156 11.887726 -1.8626451e-009
10.052487 11.932169 -3.7252903e-009
10.087387 11.981264 0
10.111987 12.028463 -1.8626451e-009
10.147887 12.077589 -3.7252903e-009
10.164119 12.123892 -5.5879354e-009
10.195004 12.170338 -1.8626451e-009
10.232962 12.219841 -5.5879354e-009
10.262799 12.267206 -3.7252903e-009
10.295624 12.31465 -1.8626451e-009
10.326458 12.362043 -3.7252903e-009
10.337556 12.40629 -3.7252903e-009
10.382871 12.455393 -5.5879354e-009
10.419954 12.504246 -1.8626451e-009
10.448712 12.54999 -1.8626451e-009
10.477413 12.596678 -7.4505806e-009
10.502117 12.641985 -5.5879354e-009
10.533945 12.689405 -1.8626451e-009
10.545164 12.73303 -3.7252903e-009
10.595719 12.782295 -1.8626451e-009
10.615113 12.827118 -1.8626451e-009
10.546359 12.860357 -5.5879354e-009
10.546034 12.903301 -5.5879354e-009
10.539525 12.94511 -1.6763806e-008
10.552737 12.988792 -9.3132257e-009
10.550351 13.031359 -2.0489097e-008
10.540718 13.072437 -1.4901161e-008
10.546631 13.115574 -1.4901161e-008
10.539058 13.157032 -3.5390258e-008
10.543042 13.200438 -1.1175871e-008
10.552079 13.244305 -1.1175871e-008
10.542446 13.285383 -3.1664968e-008
10.5536 13.328686 -3.1664968e-008
10.543912 13.370708 -2.2351742e-008
10.583095 13.417725 -5.4016709e-008
10.572465 13.458775 -2.0489097e-008
10.563828 13.499882 -2.7939675e-008
10.598887 13.546139 -3.9115548e-008
10.607977 13.589062 -2.7939675e-008
10.636803 13.635128 -2.7939675e-008
10.555332 13.66923 -2.7939675e-008
10.579025 13.71324 -6.519258e-008
10.562038 13.754719 -5.4016709e-008
10.556597 13.796879 -4.6566129e-008
10.57393 13.841318 -5.4016709e-008
10.553814 13.882067 -5.4016709e-008
10.545248 13.923498 -2.7939675e-008
10.564696 13.967371 -5.2154064e-008
10.54989 14.008608 -6.146729e-008
10.552623 14.051962 -5.7742e-008
10.548174 14.094149 -4.2840838e-008
10.452067 14.129377 -7.6368451e-008
11.044439 14.215714 -2.4214387e-008
11.028569 14.256598 -5.4016709e-008
11.174531 14.433281 -2.4214387e-008
11.245123 14.478746 -3.1664968e-008
11.286526 14.523306 -3.5390258e-008
11.270709 14.563244 -4.6566129e-008
11.277791 14.604841 -3.9115548e-008
11.29212 14.647928 -3.3527613e-008
11.31693 14.691343 -3.1664968e-008
11.35938 14.734985 -2.4214387e-008
11.349802 14.775116 -2.0489097e-008
11.406756 14.860275 -5.7742e-008
11.46175 14.904623 -3.5390258e-008
11.483436 14.947309 -4.0978193e-008
12.017466 15.010349 -3.7252903e-009
12.033963 15.051924 0
12.055754 15.092718 -1.8626451e-009
12.084788 15.135 -1.8626451e-009
12.10333 15.175684 -1.8626451e-009
12.126237 15.215883 -1.8626451e-009
12.160499 15.257061 -3.7252903e-009
12.182236 15.2988 -5.5879354e-009
12.19978 15.339457 -1.8626451e-009
12.236225 15.38039 -5.5879354e-009
12.253824 15.420101 -5.5879354e-009
12.293327 15.461445 -1.8626451e-009
12.310941 15.502422 -3.7252903e-009
12.336906 15.54303 -1.8626451e-009
12.373281 15.583641 0
12.382585 15.62278 -5.5879354e-009
12.409611 15.663736 -7.4505806e-009
12.444923 15.703999 -1.8626451e-009
12.457351 15.743866 -1.8626451e-009
12.485427 15.783907 -5.5879354e-009
12.508265 15.823782 -3.7252903e-009
12.535351 15.863794 -1.8626451e-009
12.563428 15.903831 -5.5879354e-009
12.586267 15.943708 -3.7252903e-009
2.3626525 -0.060758829 0
2.4244766 0.031186819 3.7252903e-009
2.4811695 0.12107527 1.8626451e-009
2.5369606 0.20777595 1.8626451e-009
2.5875025 0.29431117 0
2.6422367 0.38192809 1.8626451e-009
2.7051146 0.47295761 1.8626451e-009
2.760849 0.56060302 0
2.8177006 0.64765304 0
2.852124 0.72453445 1.8626451e-009
2.9109185 0.81258744 0
2.8739986 0.85597736 -1.8626451e-009
2.7778969 0.87320477 -1.6763806e-008
2.7888834 0.9373458 -1.3038516e-008
2.7814708 0.99523389 -2.0489097e-008
2.7781298 1.0548282 -2.0489097e-008
2.7839961 1.118183 -9.3132257e-009
2.7848475 1.1788572 -1.6763806e-008
2.7836199 1.2378844 -2.9802322e-008
2.7925351 1.3016458 -2.6077032e-008
2.7933371 1.3632677 -3.1664968e-008
2.7859097 1.4198866 -2.9802322e-008
2.7826366 1.4798033 -6.8917871e-008
2.7773945 1.5361804 -5.5879354e-008
2.7822495 1.5982364 -3.5390258e-008
2.769762 1.6531233 -6.146729e-008
2.7981594 1.7260271 -8.1956387e-008
2.7856073 1.7805905 -4.4703484e-008
2.7854972 1.839023 -4.2840838e-008
2.7883523 1.9010228 -9.4994903e-008
2.7850642 1.9596713 -7.6368451e-008
2.7868519 2.0200517 -6.519258e-008
2.7918203 2.0814853 -7.2643161e-008
2.779386 2.1354263 -6.8917871e-008
2.7761509 2.1931281 -7.8231096e-008
3.8915768 2.8355284 -3.1664968e-008
3.8353472 2.8682075 -2.6077032e-008
4.4454942 3.233362 1.8626451e-009
4.4955745 3.3104122 1.8626451e-009
4.536437 3.3824296 1.8626451e-009
4.565093 3.4493351 0
4.6387644 3.5350151 0
4.6704912 3.6035964 -1.8626451e-009
4.7154913 3.6776423 -1.8626451e-009
4.7780585 3.7563455 0
4.8189211 3.8283641 0
4.8650365 3.9018166 -1.8626451e-009
4.9121504 3.9752965 -1.8626451e-009
4.9623356 4.0504522 0
5.0023618 4.119607 0
5.0454068 4.1913824 -1.8626451e-009
5.105895 4.2684355 1.8626451e-009
5.1428118 4.3381262 1.8626451e-009
5.1859088 4.4089551 0
5.2342453 4.4799495 -1.8626451e-009
5.2824073 4.5525117 1.8626451e-009
5.3326998 4.6257772 -1.8626451e-009
5.3635221 4.6911697 -1.8626451e-009
5.4088182 4.7630258 -1.8626451e-009
5.4418054 4.8269043 -1.8626451e-009
5.5003576 4.902956 0
5.5537629 4.9756832 0
5.559052 5.0314407 -1.8626451e-009
5.3828688 5.0209064 -2.0489097e-008
5.3030996 5.0440073 -2.0489097e-008
5.3185887 5.1035557 -3.1664968e-008
5.3126163 5.1551738 -2.0489097e-008
5.3157773 5.2102294 -1.6763806e-008
5.3098035 5.261848 -4.8428774e-008
5.3376584 5.3236723 -2.2351742e-008
5.3388119 5.3774023 -3.1664968e-008
5.3409748 5.4324303 -3.5390258e-008
5.3380589 5.4844561 -3.1664968e-008
5.3494825 5.5422983 -5.4016709e-008
5.5487556 5.6625204 -2.4214387e-008
5.529387 5.7092957 -3.9115548e-008
5.3315291 5.6946163 -2.0489097e-008
5.3470054 5.7528934 -4.6566129e-008
5.3308315 5.8007245 -5.0291419e-008
5.3237796 5.8507218 -3.1664968e-008
5.3229227 5.9031267 -4.4703484e-008
5.3240738 5.9568582 -4.8428774e-008
5.3109093 6.006041 -7.0780516e-008
5.8789754 6.2451253 -5.2154064e-008
5.9151955 6.3078427 -3.3527613e-008
6.0344896 6.3984094 -2.0489097e-008
6.0491405 6.4550915 -2.0489097e-008
6.0349622 6.5029764 -2.7939675e-008
6.077311 6.5677795 -3.5390258e-008
6.1290402 6.6347737 -3.3527613e-008
6.767386 6.8877254 0
6.7934065 6.9466548 0
6.8338008 7.0091867 -1.8626451e-009
6.8772702 7.0733948 -1.8626451e-009
6.9115214 7.1325731 0
6.9509215 7.195076 -1.8626451e-009
6.9913688 7.2566619 -1.8626451e-009
7.0205164 7.3163228 -1.8626451e-009
7.0547671 7.3755002 -1.8626451e-009
7.0922108 7.4357338 -1.8626451e-009
7.147049 7.5021882 -1.8626451e-009
7.1773005 7.5599847 -1.8626451e-009
7.2146907 7.6211638 -1.8626451e-009
7.2530632 7.6811013 0
7.2977567 7.7428226 -1.8626451e-009
7.3371925 7.8031106 -1.8626451e-009
7.3602495 7.8584723 -1.8626451e-009
7.4110694 7.9222775 -1.8626451e-009
7.4392986 7.9774809 -1.8626451e-009
7.4788008 8.0380917 -1.8626451e-009
7.5224295 8.0994606 -3.7252903e-009
7.5568533 8.1570721 0
7.5974073 8.2167645 -1.8626451e-009
7.6236424 8.2719097 -3.7252903e-009
7.6652489 8.3306866 0
7.7110047 8.3927593 -1.8626451e-009
7.7464771 8.4494514 0
7.7799048 8.5070324 -1.8626451e-009
7.8092523 8.5616407 -1.8626451e-009
7.8498607 8.620388 -1.8626451e-009
7.8884072 8.6787567 -3.7252903e-009
7.9167004 8.7342815 -1.8626451e-009
7.9542379 8.7913532 -1.8626451e-009
7.9887671 8.8470707 -1.8626451e-009
8.027504 8.9051399 0
8.0650387 8.9622116 0
8.0985069 9.0175762 0
8.1433563 9.0764608 -1.8626451e-009
8.1727533 9.1301231 -1.8626451e-009
8.2237892 9.1901445 0
8.244874 9.2419643 -1.8626451e-009
8.2804689 9.2980347 -1.8626451e-009
8.2892418 9.346633 -1.8626451e-009
8.2877626 9.3923893 -3.7252903e-009
8.2964115 9.4416094 -7.4505806e-009
8.2918053 9.4866352 -5.5879354e-009
8.2871466 9.5326061 -2.0489097e-008
8.2917957 9.5804462 -7.4505806e-009
8.2995567 9.6277466 -1.3038516e-008
8.2938328 9.6733685 -1.6763806e-008
8.2954254 9.7208004 -1.3038516e-008
8.2907667 9.7667694 -1.8626451e-008
8.2912264 9.8135281 -3.7252903e-008
8.2897444 9.8592854 -2.6077032e-008
8.3005781 9.9082623 -2.4214387e-008
8.2918491 9.952528 -2.0489097e-008
8.3129349 10.004351 -2.7939675e-008
8.3155746 10.050863 -2.2351742e-008
8.3037252 10.0944 -3.1664968e-008
8.3207378 10.144516 -2.7939675e-008
8.3936224 10.207115 -2.9802322e-008
8.3197861 10.237352 -2.9802322e-008
8.2995691 10.279993 -3.7252903e-008
8.2938995 10.324667 -2.7939675e-008
8.2955446 10.371153 -1.8626451e-008
8.2887564 10.416424 -4.4703484e-008
8.3017168 10.466103 -3.9115548e-008
8.2908592 10.509668 -5.2154064e-008
8.2955647 10.556561 -5.5879354e-008
8.2898388 10.602182 -7.6368451e-008
8.2872419 10.648533 -8.5681677e-008
8.2846966 10.693935 -6.519258e-008
8.2428017 10.732433 -6.519258e-008
8.8351479 10.892038 -1.3038516e-008
9.398243 11.088957 -3.7252903e-009
9.4567766 11.14447 -1.8626451e-009
9.4781427 11.192831 -1.8626451e-009
9.5068073 11.241734 -3.7252903e-009
9.5353527 11.29126 -1.8626451e-009
9.5867596 11.344662 0
9.600873 11.391531 -3.7252903e-009
9.6284742 11.440084 -1.8626451e-009
9.6633244 11.490126 -1.8626451e-009
9.7043571 11.541306 0
9.7267714 11.588749 -1.8626451e-009
9.7626858 11.639143 -1.8626451e-009
9.7933969 11.687159 0
9.8261871 11.73682 0
9.8631477 11.786295 -1.8626451e-009
9.875205 11.832787 -5.5879354e-009
9.9245882 11.883595 -1.8626451e-009
9.9408712 11.928951 -3.7252903e-009
9.9747772 11.97802 0
10.001312 12.026222 -1.8626451e-009
10.036217 12.075317 -5.5879354e-009
10.074226 12.123875 1.8626451e-009
10.098947 12.170452 -5.5879354e-009
10.140082 12.21974 -1.8626451e-009
10.155318 12.266018 -3.7252903e-009
10.189209 12.313816 1.8626451e-009
10.213741 12.360691 -3.7252903e-009
10.25081 12.408274 -5.5879354e-009
10.271214 12.454393 -1.8626451e-009
10.313473 12.503086 -3.7252903e-009
10.337003 12.549934 -1.8626451e-009
10.371941 12.596817 -3.7252903e-009
10.397711 12.642475 -1.8626451e-009
10.426414 12.689163 -3.7252903e-009
10.461421 12.736366 -3.7252903e-009
10.473583 12.780966 -5.5879354e-009
10.517887 12.828773 -3.7252903e-009
10.541523 12.873728 -1.8626451e-009
10.554683 12.918356 -5.5879354e-009
10.548175 12.960163 -5.5879354e-009
10.562382 13.003874 -5.5879354e-009
10.548642 13.045462 -1.3038516e-008
10.542122 13.085999 -1.3038516e-008
10.558459 13.130413 -9.3132257e-009
10.548772 13.172436 -9.3132257e-009
10.549564 13.214787 -1.4901161e-008
10.546112 13.257002 -1.8626451e-008
10.540655 13.297892 -1.6763806e-008
10.543455 13.341568 -1.8626451e-008
10.549368 13.384706 -1.8626451e-008
10.546039 13.426302 -3.5390258e-008
10.541537 13.469435 -2.0489097e-008
10.539133 13.510733 -2.2351742e-008
10.546166 13.553274 -3.1664968e-008
10.586416 13.600643 -5.7742e-008
10.576781 13.64172 -1.8626451e-008
10.571269 13.683558 -4.4703484e-008
10.592846 13.728134 -3.5390258e-008
10.630019 13.773825 -3.9115548e-008
10.570401 13.810503 -3.5390258e-008
10.559649 13.852175 -7.2643161e-008
10.557263 13.894741 -4.6566129e-008
10.548693 13.936171 -4.6566129e-008
10.551549 13.978901 -1.3038516e-008
10.54705 14.022036 -3.1664968e-008
10.562373 14.065149 -4.8428774e-008
10.54745 14.107008 -5.5879354e-008
10.532575 14.147923 -5.7742e-008
10.562571 14.192448 -6.3329935e-008
10.555943 14.234879 -1.1175871e-007
10.472321 14.271761 -8.0093741e-008
10.99396 14.349257 -2.7939675e-008
11.015588 14.392889 -4.2840838e-008
11.093493 14.440165 -3.5390258e-008
11.125537 14.483799 -3.5390258e-008
11.174022 14.569956 -3.5390258e-008
11.202939 14.612862 -4.4703484e-008
11.278839 14.658813 -4.4703484e-008
11.28068 14.700247 -3.9115548e-008
11.265803 14.741159 -4.2840838e-008
11.28543 14.783464 -2.7939675e-008
11.315407 14.826723 -3.5390258e-008
11.354805 14.869955 -4.2840838e-008
11.353467 14.911604 -2.6077032e-008
11.361613 14.953552 -2.9802322e-008
12.015817 15.18362 -1.8626451e-009
12.033552 15.223978 -1.8626451e-009
12.063584 15.266287 -5.5879354e-009
12.09254 15.306978 -3.7252903e-009
12.122764 15.348989 -1.8626451e-009
12.13725 15.389238 -5.5879354e-009
12.178867 15.430016 -5.5879354e-009
12.186002 15.470667 -1.8626451e-009
12.215075 15.510735 -7.4505806e-009
12.242053 15.552635 -3.7252903e-009
12.269011 15.593269 -1.8626451e-009
12.297145 15.632362 -1.8626451e-009
12.319931 15.673183 -5.5879354e-009
12.35531 15.713768 -1.8626451e-009
12.370794 15.754044 -9.3132257e-009
12.396759 15.794651 -3.7252903e-009
12.421711 15.83396 -3.7252903e-009
12.454033 15.874136 -1.8626451e-009
12.471633 15.913845 -1.8626451e-009
12.509004 15.954485 -1.8626451e-009
2.2926111 0.061859608 1.8626451e-009
2.3483455 0.14950609 -1.8626451e-009
2.4193733 0.24521244 1.8626451e-009
2.4780583 0.33515811 1.8626451e-009
2.5245893 0.4190439 0
2.5813804 0.5070399 0
2.6443112 0.59712142 -1.8626451e-009
2.6980381 0.68344247 1.8626451e-009
2.7477469 0.76711237 -1.8626451e-009
2.7841165 0.84499407 -1.8626451e-009
2.7838471 0.90626496 0
2.7826195 0.9652912 -9.3132257e-009
2.7824032 1.0256153 -9.3132257e-009
2.7750664 1.0838267 -1.3038516e-008
2.7830081 1.1488295 -1.6763806e-008
2.7827876 1.2091537 -1.6763806e-008
2.776485 1.2651787 -3.5390258e-008
2.7782798 1.3268282 -2.2351742e-008
2.7902739 1.3922663 -2.4214387e-008
2.7818463 1.4488574 -2.9802322e-008
2.7867012 1.5109144 -3.3527613e-008
2.7804136 1.5682077 -4.0978193e-008
2.7802467 1.6275871 -3.5390258e-008
2.7789698 1.68756 -4.0978193e-008
2.7817566 1.7492374 -2.6077032e-008
2.7897325 1.8120242 -4.6566129e-008
2.7813659 1.8676696 -5.2154064e-008
2.7832098 1.9283735 -4.0978193e-008
2.782058 1.9877239 -5.4016709e-008
2.7817771 2.0477247 -8.1956387e-008
2.7764783 2.1050467 -1.0244548e-007
2.7753072 2.1631269 -7.6368451e-008
2.7812231 2.2255361 -4.4703484e-008
2.782124 2.2852645 -1.0617077e-007
2.7838995 2.3456459 -5.4016709e-008
2.7918794 2.4084327 -7.8231096e-008
3.7483606 2.8604703 -2.4214387e-008
3.6450148 2.8762102 -3.7252903e-008
4.3011656 3.2023594 1.8626451e-009
4.3317757 3.2715344 -1.8626451e-009
4.374711 3.345202 -1.8626451e-009
4.4269061 3.4216847 0
4.4678349 3.4940259 -1.8626451e-009
4.5322361 3.5756228 -1.8626451e-009
4.5751743 3.6492891 -1.8626451e-009
4.6172237 3.7210362 0
4.664268 3.794194 0
4.7123947 3.8689716 0
4.7553859 3.9416924 -1.8626451e-009
4.803494 4.0152011 -1.8626451e-009
4.8425221 4.0843258 -1.8626451e-009
4.8947716 4.1598611 0
4.9460039 4.2341003 -1.8626451e-009
4.9859748 4.3041992 -1.8626451e-009
5.042345 4.3804946 1.8626451e-009
5.079298 4.4479704 -1.8626451e-009
5.126533 4.5208278 0
5.1798811 4.5945005 0
5.2240434 4.6656818 -1.8626451e-009
5.264071 4.7348347 -1.8626451e-009
5.312336 4.8055048 0
5.3534794 4.8740644 0
5.3935566 4.9422708 -1.8626451e-009
5.4490376 5.0166454 0
5.3241072 5.0250788 -9.3132257e-009
5.3079181 5.07164 -5.5879354e-009
5.3059449 5.124639 -1.3038516e-008
5.3184328 5.1828332 -1.6763806e-008
5.3082509 5.2321014 -1.3038516e-008
5.3124776 5.287508 -2.4214387e-008
5.3147511 5.3406434 -2.7939675e-008
5.3077121 5.3919106 -1.8626451e-008
5.3037982 5.4439087 -2.0489097e-008
5.3264151 5.5055685 -3.9115548e-008
5.3388996 5.5637627 -1.3038516e-008
5.405786 5.6381702 -2.0489097e-008
5.3884792 5.6853251 -2.7939675e-008
5.3558569 5.7279053 -9.3132257e-009
5.3241639 5.7701898 -5.2154064e-008
5.3345723 5.826735 -4.2840838e-008
5.3173208 5.8729448 -4.2840838e-008
5.3215971 5.9274068 -3.1664968e-008
5.3268886 5.9831643 -5.7742e-008
5.3219123 6.034811 -6.519258e-008
5.3313098 6.0900588 -5.4016709e-008
5.3099318 6.1355095 -7.6368451e-008
5.3193994 6.191081 -1.4901161e-008
5.838202 6.411253 -3.9115548e-008
5.9144669 6.4878535 -3.7252903e-008
5.9588246 6.5539808 -2.0489097e-008
6.0515251 6.6345625 -2.0489097e-008
6.0415196 6.6822615 -2.7939675e-008
6.0530453 6.7382126 -4.2840838e-008
6.1190939 6.8097539 -4.0978193e-008
6.1379352 6.8675175 -5.5879354e-008
6.7683411 7.1120071 -1.8626451e-009
6.8272467 7.1801682 -1.8626451e-009
6.8573217 7.2395334 0
6.887465 7.299222 -1.8626451e-009
6.9361043 7.3632703 -1.8626451e-009
6.9684143 7.4214468 -1.8626451e-009
7.0026803 7.481895 -1.8626451e-009
7.0534506 7.5466461 0
7.0907755 7.607501 0
7.1230836 7.6656771 -1.8626451e-009
7.1461406 7.7210388 0
7.196909 7.7857904 -1.8626451e-009
7.2343383 7.8447523 -1.8626451e-009
7.2892289 7.9102631 0
7.3030829 7.9618635 0
7.3487716 8.0236149 -1.8626451e-009
7.3892741 8.0842533 -3.7252903e-009
7.4298301 8.1439457 -1.8626451e-009
7.4693193 8.203289 -1.8626451e-009
7.4996734 8.2591944 -1.8626451e-009
7.5505495 8.3220539 0
7.5787201 8.3782024 -1.8626451e-009
7.6224022 8.4386263 -1.8626451e-009
7.6609507 8.496994 -1.8626451e-009
7.6872392 8.5511951 -1.8626451e-009
7.7278433 8.6099424 -1.8626451e-009
7.7570667 8.6651726 -1.8626451e-009
7.8018646 8.7250023 1.8626451e-009
7.8383512 8.7829914 -1.8626451e-009
7.8759394 8.8391171 -1.8626451e-009
7.9165993 8.8969193 -1.8626451e-009
7.9480233 8.9531746 -1.8626451e-009
7.9855561 9.0102453 -1.8626451e-009
8.0159645 9.0652046 -1.8626451e-009
8.0556135 9.1217089 -3.7252903e-009
8.0840168 9.1753426 0
8.1267376 9.2335243 -1.8626451e-009
8.1571493 9.2884827 0
8.1957321 9.3446369 -1.8626451e-009
8.2252474 9.3976746 -1.8626451e-009
8.2597132 9.4530697 -3.7252903e-009
8.3015442 9.5093298 -3.7252903e-009
8.2916975 9.5541916 -1.8626451e-009
8.2901678 9.600893 -1.3038516e-008
8.2928085 9.6474094 -5.5879354e-009
8.2860718 9.6917305 -1.6763806e-008
8.3030338 9.7427921 -1.4901161e-008
8.295372 9.7874088 -1.8626451e-008
8.2937708 9.8337898 -1.6763806e-008
8.29741 9.880331 -2.0489097e-008
8.2834921 9.9234867 -2.9802322e-008
8.290204 9.9717064 -2.7939675e-008
8.2886696 10.018408 -3.1664968e-008
8.2963781 10.066656 -2.7939675e-008
8.2938337 10.112061 -2.2351742e-008
8.2943611 10.159142 -1.6763806e-008
8.3217497 10.211479 -3.5390258e-008
8.3098984 10.255014 -3.1664968e-008
8.3186693 10.303614 -4.2840838e-008
8.3616047 10.358009 -3.7252903e-008
8.323884 10.396318 -5.7742e-008
8.3026686 10.438932 -4.4703484e-008
8.2948837 10.484171 -1.6763806e-008
8.2985907 10.531036 -6.146729e-008
8.300168 10.5772 -1.4901161e-008
8.2913189 10.622089 -5.2154064e-008
8.2918978 10.668224 -4.4703484e-008
8.2975445 10.716093 -3.7252903e-008
8.2960653 10.761848 -7.0780516e-008
8.281085 10.804653 -5.2154064e-008
8.2836771 10.852114 -7.0780516e-008
9.2734032 11.084084 -1.8626451e-009
9.3339958 11.139975 -3.7252903e-009
9.3615446 11.189474 -1.8626451e-009
9.4046354 11.241034 -1.8626451e-009
9.4373703 11.291643 -1.8626451e-009
9.4587364 11.340002 -5.5879354e-009
9.5038891 11.391941 -1.8626451e-009
9.5190573 11.437895 -1.8626451e-009
9.5652227 11.491131 -1.8626451e-009
9.5752859 11.537567 -1.8626451e-009
9.6184311 11.588181 -3.7252903e-009
9.6563549 11.639898 -3.7252903e-009
9.6756973 11.685665 -3.7252903e-009
9.7219696 11.737011 0
9.7402077 11.784639 -3.7252903e-009
9.781292 11.834873 -1.8626451e-009
9.8037071 11.882317 -1.8626451e-009
9.8313608 11.929922 -3.7252903e-009
9.8590164 11.97753 -3.7252903e-009
9.9011641 12.028116 -1.8626451e-009
9.9360676 12.077211 -5.5879354e-009
9.9584837 12.124655 -1.8626451e-009
9.990366 12.171127 -1.8626451e-009
10.03351 12.221743 -5.5879354e-009
10.067403 12.269541 -1.8626451e-009
10.089938 12.316362 -1.8626451e-009
10.116527 12.363615 -1.8626451e-009
10.136986 12.408787 -1.8626451e-009
10.178124 12.458075 -1.8626451e-009
10.20896 12.505466 -1.8626451e-009
10.240788 12.552887 -1.8626451e-009
10.277803 12.601418 -1.8626451e-009
10.299381 12.645994 -1.8626451e-009
10.337392 12.694551 -5.5879354e-009
10.350605 12.738232 1.8626451e-009
10.38556 12.786385 -1.8626451e-009
10.409077 12.831963 -1.8626451e-009
10.437953 12.877083 -3.7252903e-009
10.477084 12.925047 -3.7252903e-009
10.494418 12.969486 -3.7252903e-009
10.520063 13.015768 -5.5879354e-009
10.550948 13.062214 -1.8626451e-009
10.55798 13.104757 -5.5879354e-009
10.541046 13.145292 -9.3132257e-009
10.5512 13.188564 -9.3132257e-009
10.54775 13.23078 -1.8626451e-008
10.543233 13.272644 -1.6763806e-008
10.550261 13.315189 -1.6763806e-008
10.543756 13.356997 -2.2351742e-008
10.546608 13.399727 -2.2351742e-008
10.54728 13.442701 -2.4214387e-008
10.550135 13.485434 -2.4214387e-008
10.543557 13.526917 -2.4214387e-008
10.548475 13.570028 -3.1664968e-008
10.549266 13.612379 -3.1664968e-008
10.543755 13.654215 -2.6077032e-008
10.542433 13.697132 -2.0489097e-008
10.569182 13.74155 -3.9115548e-008
10.560614 13.782978 -2.7939675e-008
10.566526 13.826117 -4.0978193e-008
10.593221 13.871481 -3.9115548e-008
10.637696 13.917717 -3.5390258e-008
10.577077 13.954367 -6.519258e-008
10.558033 13.995466 -3.9115548e-008
10.556765 14.037439 -2.7939675e-008
10.556438 14.080385 -5.0291419e-008
10.547747 14.122437 -5.0291419e-008
10.54124 14.164246 -6.8917871e-008
10.556569 14.207357 -5.9604645e-008
10.561482 14.250469 -7.8231096e-008
10.561154 14.293415 -6.519258e-008
10.549463 14.334114 -5.4016709e-008
10.554375 14.377224 -7.2643161e-008
10.544639 14.420193 -8.3819032e-008
10.435936 14.45566 -6.7055225e-008
11.034914 14.535566 -3.9115548e-008
11.07431 14.578798 -2.9802322e-008
11.186877 14.752228 -1.6763806e-008
11.225208 14.795111 -3.9115548e-008
11.278141 14.839081 -2.4214387e-008
11.282109 14.881216 -3.1664968e-008
11.295429 14.923006 -2.9802322e-008
11.282616 14.9643 -3.1664968e-008
11.325191 15.007317 -3.5390258e-008
11.349982 15.049463 -2.7939675e-008
11.342412 15.090919 -3.5390258e-008
11.44003 15.177341 -3.9115548e-008
11.480477 15.219656 -2.6077032e-008
11.555415 15.263365 -2.2351742e-008
11.997771 15.318178 -1.8626451e-009
12.02997 15.358974 -1.8626451e-009
12.060057 15.400341 -5.5879354e-009
12.076606 15.440969 -9.3132257e-009
12.106693 15.482334 -5.5879354e-009
12.131661 15.522913 -7.4505806e-009
12.160686 15.563925 -5.5879354e-009
12.182472 15.604717 -5.5879354e-009
12.205242 15.644272 -3.7252903e-009
12.240623 15.684853 -1.8626451e-009
12.250936 15.725288 -5.5879354e-009
12.289372 15.766281 -1.8626451e-009
12.316401 15.807236 -3.7252903e-009
12.328813 15.845837 -9.3132257e-009
12.363126 15.88607 -3.7252903e-009
12.383853 15.926512 -5.5879354e-009
12.408752 15.966764 -5.5879354e-009
2.0844772 -0.011831045 -1.8626451e-009
2.0831432 0.049088717 -5.5879354e-009
2.0827522 0.11098206 -1.8626451e-009
2.2901561 0.27188337 1.8626451e-009
2.3438301 0.35915029 0
2.3995113 0.44774163 1.8626451e-009
2.4532843 0.53311694 -1.8626451e-009
2.5070117 0.61943704 0
2.5688212 0.71011347 0
2.6164694 0.7934047 1.8626451e-009
2.6823997 0.88483953 0
2.7178681 0.95953166 -1.8626451e-009
2.7685807 1.0444995 -1.8626451e-009
2.7775183 1.1095291 -1.8626451e-009
2.7783058 1.1698809 -7.4505806e-009
2.7933104 1.2379422 -9.3132257e-009
2.7870078 1.2939682 -7.4505806e-009
2.7867913 1.3542914 -7.4505806e-009
2.7803788 1.412209 -1.8626451e-008
2.7812304 1.4728832 -9.3132257e-009
2.7860854 1.5349402 -2.2351742e-008
2.7818506 1.5926143 -9.3132257e-009
2.7774985 1.6509107 -2.4214387e-008
2.7823458 1.7129668 -2.7939675e-008
2.781194 1.7723154 -2.9802322e-008
2.7942486 1.8381073 -2.2351742e-008
2.7768681 1.8896911 -2.7939675e-008
2.7877979 1.954778 -4.6566129e-008
2.7804954 2.0107753 -4.8428774e-008
2.7854147 2.0731556 -2.7939675e-008
2.777987 2.1297746 -5.5879354e-008
2.7789447 2.1885591 -5.0291419e-008
2.7827358 2.2502642 -5.9604645e-008
2.7887003 2.3117263 -5.5879354e-008
2.7741978 2.3652878 -8.9406967e-008
2.7842531 2.4297245 -7.8231096e-008
3.6332946 2.8367174 -1.1175871e-008
3.5759623 2.8712595 -3.1664968e-008
2.7827408 2.6052923 -7.0780516e-008
4.1757598 3.2307105 1.8626451e-009
4.2217016 3.3057323 0
4.263628 3.3781016 -1.8626451e-009
4.2994251 3.4483881 -1.8626451e-009
4.3689046 3.5329852 0
4.4047036 3.6032717 0
4.4568815 3.6784837 0
4.5029464 3.7528827 0
4.564342 3.8331249 0
4.5970635 3.9017346 0
4.6401095 3.9735103 -1.8626451e-009
4.6934071 4.0481286 -1.8626451e-009
4.7373939 4.1208787 -1.8626451e-009
4.7876344 4.1950884 0
4.8388157 4.2702742 1.8626451e-009
4.8911152 4.3448644 0
4.9208727 4.4099045 0
4.9793038 4.4865799 0
5.0275183 4.5581946 -1.8626451e-009
5.0716267 4.6303225 0
5.1004419 4.6943893 0
5.1507168 4.7663851 -1.8626451e-009
5.1969404 4.837945 0
5.2360234 4.9061251 0
5.2863007 4.9781199 0
5.2997808 5.0363421 -1.8626451e-009
5.3132639 5.0945635 -5.5879354e-009
5.3205457 5.1503797 -5.5879354e-009
5.3165655 5.2020531 -9.3132257e-009
5.2993274 5.2495327 -1.3038516e-008
5.3045506 5.3049679 -2.0489097e-008
5.3160233 5.3618641 -1.8626451e-008
5.3059125 5.4114547 -1.6763806e-008
5.3091421 5.4668345 -2.7939675e-008
5.3205462 5.523407 -3.9115548e-008
5.3175778 5.5763798 -2.2351742e-008
5.3126545 5.6270804 -2.4214387e-008
5.3025422 5.6766715 -3.9115548e-008
5.3355312 5.74055 -3.9115548e-008
5.330555 5.7921972 -2.9802322e-008
5.3410301 5.8490667 -3.9115548e-008
5.3965998 5.92028 -3.1664968e-008
5.341383 5.9542565 -2.7939675e-008
5.342535 6.0079865 -3.5390258e-008
5.3159757 6.0523276 -2.4214387e-008
5.3243771 6.1075473 -2.6077032e-008
5.3348384 6.1631465 -4.0978193e-008
5.3227353 6.2126808 -6.146729e-008
5.3136177 6.2622995 -5.0291419e-008
5.3271565 6.3195763 -8.7544322e-008
5.3159804 6.3688164 -5.7742e-008
5.3131857 6.4202194 -5.7742e-008
5.9040475 6.6580987 -3.5390258e-008
5.9217072 6.7161341 -4.8428774e-008
6.0247912 6.8002043 -2.0489097e-008
6.0486989 6.8597012 -3.5390258e-008
6.0458732 6.9085665 -3.1664968e-008
6.0739055 6.9688206 -4.2840838e-008
6.7094092 7.2128272 -1.8626451e-009
6.7528768 7.2770362 0
6.7994556 7.3407054 -1.8626451e-009
6.8327093 7.3998556 -1.8626451e-009
6.8577738 7.4565425 -1.8626451e-009
6.9043531 7.5202122 -1.8626451e-009
6.955121 7.5849633 0
6.9852495 7.643383 0
7.0123725 7.7004485 -1.8626451e-009
7.0580106 7.763145 0
7.1016378 7.8245149 -1.8626451e-009
7.1452117 7.8868303 -1.8626451e-009
7.189888 7.9472833 0
7.2241936 8.0055161 -1.8626451e-009
7.2605715 8.0653954 -1.8626451e-009
7.2867541 8.1214886 0
7.3355002 8.1836452 -1.8626451e-009
7.3709898 8.2416077 -1.8626451e-009
7.4156656 8.3020592 0
