# .PCD v0.7 - Point Cloud Data file format
VERSION 0.7
FIELDS x y z
SIZE 4 4 4
TYPE F F F
COUNT 1 1 1
WIDTH 1462
HEIGHT 1
VIEWPOINT 0 0 0 1 0 0 0
POINTS 1462
DATA ascii
18.17161 4.4185791 0.25112247
18.200134 4.4738817 0.24331284
18.234034 4.531312 0.23024464
18.231445 4.5678911 0.24355984
18.265406 4.6243763 0.23017597
18.283644 4.6725979 0.22877407
18.318539 4.7300682 0.21578884
17.866999 4.504612 0.52821159
18.349909 4.8231316 0.21572018
17.930548 4.6167603 0.50615311
17.919731 4.6491947 0.52384281
18.386183 4.9543591 0.22261238
18.306967 4.9468765 0.28552055
18.414566 5.0447674 0.22354889
18.419405 5.0838776 0.23082829
18.449186 5.137969 0.22057629
18.489317 5.196928 0.20422459
18.508747 5.2448854 0.20069885
18.511593 5.2826471 0.20844173
18.50396 5.313633 0.2247982
18.509924 5.3534269 0.23026943
18.516884 5.3945274 0.23519611
18.523842 5.4343605 0.24075031
18.539158 5.4777126 0.24066734
18.553417 5.5219707 0.24081993
18.594608 5.5812902 0.22360516
18.583986 5.6108875 0.24034405
18.588825 5.6499977 0.24762344
18.954672 5.8819256 0.0087585449
18.980469 5.9307871 0.00068759918
18.999966 5.976532 -0.0025281906
19.009176 6.0164633 4.0054321e-05
19.01932 6.0573826 0.0030059814
19.035763 6.1001492 0.0017442703
19.046967 6.1414299 0.0038499832
19.067652 6.1869106 -0.001490593
19.079916 6.2272854 0.00038051605
19.100538 6.2737131 -0.0046415329
19.11698 6.3152132 -0.00527668
19.122013 6.3527527 0.00042247772
19.140511 6.3971891 -0.0022468567
19.13619 6.4286356 0.010261536
19.171471 6.4816971 -0.0052528381
19.168207 6.513504 0.0063924789
19.186708 6.5579405 0.0037240982
19.206333 6.6017933 -0.00012588501
19.222908 6.6439362 -0.0026493073
19.246647 6.6898594 -0.0086870193
19.241327 6.7212648 0.0037412643
19.265198 6.7665644 -0.0035581589
19.275404 6.8052683 -0.00028038025
19.287731 6.8459644 0.00064468384
19.302378 6.8870802 -0.0023622513
19.31789 6.9275932 -0.0033960342
19.330282 6.9673433 -0.0027894974
19.341551 7.0064101 -0.00037384033
19.359184 7.048914 -0.0037603378
19.375755 7.0910559 -0.0062847137
19.38921 7.1299 -0.0059118271
19.401604 7.1696501 -0.0053033829
19.40564 7.2046137 0.0015678406
19.424398 7.2465334 -0.0029973984
19.42837 7.282444 0.0041913986
19.463909 7.3317204 -0.012592316
19.458527 7.3628044 0.00077819824
19.474102 7.4023714 -0.00057220459
19.491734 7.4436083 -0.0033311844
19.497959 7.4796171 0.00087070465
19.527195 7.5257783 -0.011055946
19.53017 7.5603809 -0.003320694
19.536327 7.5960684 0.0018262863
19.556149 7.6383491 -0.0036039352
19.568672 7.6762066 -0.0036287308
19.580067 7.7133813 -0.0018491745
19.593588 7.7525463 -0.0024194717
19.596626 7.7862024 0.0049982071
19.613327 7.8264527 0.0018386841
19.629967 7.8663816 -0.00037384033
19.646667 7.9053645 -0.0029067993
19.651892 7.9400654 0.0018434525
19.673769 7.9827485 -0.0043649673
19.688416 8.0213289 -0.0061168671
19.693575 8.0557079 -0.0004234314
19.699799 8.0904503 0.0044050217
19.715504 8.1293926 0.0017929077
19.736383 8.1707668 -0.0038709641
19.754211 8.210433 -0.0082101822
19.762619 8.2449512 -0.0054206848
19.770899 8.2813616 -0.001996994
19.777187 8.3151569 0.0025157928
19.782413 8.3498573 0.0072631836
19.805349 8.3916349 0.00082015991
19.81588 8.426877 0.0018844604
19.82535 8.4630251 0.0031824112
19.857769 8.5077362 -0.010076523
19.854637 8.5389185 0.0003080368
19.875584 8.5793476 -0.0056715012
19.890293 8.615715 -0.0071125031
19.880861 8.6437817 0.0081281662
19.904989 8.6852961 -0.00043869019
19.919632 8.7226095 -0.0015621185
19.928106 8.7574482 0.00028133392
19.941822 8.7937756 -0.0012407303
19.959648 8.8321733 -0.0049524307
19.971174 8.8687229 -0.0044326782
19.980579 8.9032822 -0.0015630722
19.992235 8.9392061 -0.0023059845
20.005949 8.9755325 -0.0038280487
20.017475 9.0108147 -0.0026826859
20.032249 9.0475035 -0.005068779
20.042778 9.0827456 -0.0040054321
20.05331 9.1179867 -0.0029401779
20.065962 9.1526842 -0.0029735565
20.074436 9.1875238 -0.0011310577
20.091267 9.2246151 -0.0042953491
20.099741 9.2594547 -0.0024518967
20.109209 9.293067 0.00010204315
20.125046 9.3301163 -0.0031452179
20.129274 9.3622417 0.0027742386
20.15453 9.4019051 -0.0063438416
20.157761 9.4339905 -0.00050544739
20.170479 9.4690094 -0.0014829636
20.188499 9.5058355 -0.0067739487
20.202148 9.5418415 -0.0073509216
20.215927 9.5772219 -0.0091924667
20.226521 9.611517 -0.0084457397
20.230751 9.6436424 -0.0025253296
20.240349 9.67663 -0.0012331009
20.24889 9.7105246 0.00029277802
20.265785 9.7466688 -0.0031890869
20.266895 9.7780304 0.0043735504
20.281801 9.8140936 0.00072574615
20.286095 9.845273 0.0063304901
20.278786 9.8727951 0.020474434
20.283012 9.9049206 0.026395798
20.273582 9.9329872 0.041635513
20.289547 9.9681454 0.037755013
20.279118 9.9949036 0.05354023
20.274925 10.024458 0.065415382
20.281342 10.05636 0.06929493
20.28451 10.088124 0.076077461
20.278259 10.117275 0.088732719
20.280434 10.147732 0.096059799
20.293213 10.181805 0.094764709
20.278481 10.208063 0.11431885
20.277533 10.237755 0.12328911
20.27964 10.269157 0.13093472
20.273392 10.297041 0.14421749
20.278877 10.329226 0.14706898
20.2715 10.357694 0.16152954
20.275795 10.388873 0.16713428
16.484528 -1.3833027 -0.0064849854
16.498747 -1.3225975 -0.0018033981
16.517078 -1.2598228 0.00069141388
16.543575 -1.1894245 -0.0021266937
16.547764 -1.1395836 0.0076971054
16.571205 -1.0734291 0.0074577332
16.599691 -1.0016813 0.0041761398
16.621208 -0.93655396 0.0034561157
16.641661 -0.87305641 0.0042257309
16.674389 -0.79986191 -0.0025043488
16.697962 -0.73433113 -0.0040025711
16.712244 -0.6745739 0.00036048889
16.733757 -0.61198139 0.00089550018
16.75633 -0.54649162 -0.00068664551
16.751366 -0.50558472 0.014994621
16.697283 -0.50345993 0.060675621
16.626877 -0.51404762 0.11572742
16.569742 -0.51363277 0.16273403
16.508493 -0.51655579 0.21255779
16.455477 -0.5140686 0.25737667
16.395159 -0.51473904 0.3069706
16.340084 -0.51265526 0.35256863
15.286694 -1.1568928 1.0442114
15.281401 -1.1125221 1.0621061
15.281349 -1.0641298 1.0753784
15.285345 -1.0114517 1.086154
15.28124 -0.96734428 1.1019249
15.279068 -0.91967583 1.1169214
15.280075 -0.87092209 1.1293316
15.277966 -0.82419777 1.1440115
15.275854 -0.77747536 1.1586933
15.280977 -0.72665024 1.1689138
15.284973 -0.67523956 1.180316
15.28087 -0.62986374 1.1954584
15.279758 -0.58183289 1.2095919
15.282757 -0.53173065 1.2215414
15.276665 -0.48897171 1.2377729
15.278666 -0.44017601 1.2502661
17.325621 1.1421337 -0.0033893585
17.341219 1.1972008 -0.00052642822
17.35589 1.2512808 0.0019330978
17.373745 1.306447 0.0018100739
17.395517 1.3652554 0.0010757446
17.409189 1.4180279 0.0040807724
17.429035 1.4745417 0.003493309
17.450937 1.5327253 0.0014972687
17.470848 1.5895605 -3.528595e-05
17.485582 1.641428 0.0027370453
17.501314 1.6958694 0.0043363571
17.52627 1.755764 0.0010156631
17.538946 1.8072281 0.0045671463
17.563036 1.8651886 0.00052928925
17.570601 1.9120073 0.0074415207
17.592569 1.969245 0.0051279068
17.61759 2.029459 0.00086307526
17.631393 2.0803404 0.003235817
17.65243 2.1353235 0.0011510849
17.673401 2.1912527 -0.00061702728
17.687204 2.2434006 0.001127243
17.701008 2.294281 0.0034999847
17.721977 2.3489437 0.0023593903
17.733856 2.3975296 0.0048780441
17.753763 2.4518299 0.0045995712
17.777853 2.5097904 0.00056171417
17.794838 2.5617561 0.00034713745
17.814812 2.6151104 -0.00024700165
17.824631 2.6620274 0.0036783218
17.850843 2.7207108 -0.0020847321
17.863649 2.7690163 0.0014600754
17.887802 2.8260307 -0.0028944016
17.889328 2.8659477 0.0076065063
17.91361 2.9223385 0.0019884109
17.928474 2.9723129 0.0041265488
17.95475 3.0300503 -0.0019521713
17.967625 3.0774097 0.0012741089
17.989849 3.1308632 -0.0023069382
18.008957 3.1835508 -0.0042457581
18.019705 3.2301874 0.00070762634
18.038877 3.28193 -0.0015497208
18.046576 3.3255882 0.0053548813
18.075037 3.3831034 -0.0027675629
18.089037 3.4311447 -0.0013456345
18.102966 3.480134 0.00039196014
18.117962 3.5282164 0.0018959045
18.127846 3.5729198 0.0061311722
18.151133 3.6267338 0.0016870499
18.165192 3.67383 0.002790451
18.12956 3.6893921 0.037378311
18.063942 3.6869135 0.091282845
17.994337 3.6817398 0.1461134
17.915314 3.6701508 0.20869923
17.891094 3.6934748 0.23506927
17.818241 3.6868935 0.29343224
17.810478 3.7210388 0.30979633
17.803774 3.7555466 0.32529831
17.803373 3.793169 0.33594418
17.804964 3.8334084 0.34549999
17.816839 3.8807278 0.34864521
17.813255 3.9172649 0.3618784
17.804562 3.9504242 0.3778429
17.804157 3.9880486 0.38848877
17.827446 4.0418625 0.38404369
17.824858 4.0784407 0.39735985
18.02117 4.2354622 0.27799129
18.096272 4.3190002 0.23959446
18.106285 4.3630791 0.24256802
18.087175 4.3885145 0.26683331
18.110592 4.4404364 0.26175404
18.136065 4.4940281 0.25526905
18.139841 4.5340443 0.2627821
18.243135 4.6314335 0.20457745
18.239614 4.6670265 0.21749306
18.220568 4.6927843 0.24081326
18.278284 4.764513 0.21202087
18.281996 4.8042088 0.22047901
18.280598 4.8392563 0.2322979
18.296848 4.8861294 0.23135948
17.878416 4.6832781 0.52093697
18.31999 4.9737825 0.23629189
18.319651 5.0104599 0.24662113
18.306906 5.0393333 0.26508427
18.367804 5.1108799 0.23433399
18.405878 5.1694374 0.21876144
18.403484 5.2057114 0.22986984
18.424974 5.2540722 0.225564
18.436047 5.2959766 0.22893047
18.489779 5.3624763 0.2023201
18.516439 5.413269 0.19496536
18.505751 5.4438124 0.21202087
18.508596 5.4803066 0.22039032
18.505142 5.5149536 0.2329874
18.515284 5.5571394 0.23532772
18.518064 5.5945797 0.24401379
18.540615 5.643302 0.23884583
18.913631 5.8790112 -0.003528595
18.924833 5.9202919 -0.0014247894
18.933979 5.9599018 0.0020875931
18.947304 6.0019064 0.0024671555
18.967859 6.0480118 -0.0016098022
18.969776 6.0835199 0.0063591003
18.990332 6.1296272 0.0022821426
18.999479 6.1692371 0.0057945251
19.023153 6.2161074 7.4386597e-05
19.029245 6.2540073 0.0049123764
19.054047 6.3015614 -0.002614975
19.062197 6.3398647 0.0014429092
19.070282 6.3791132 0.0058164597
19.087784 6.4222422 0.003692627
19.103231 6.4649696 0.0023469925
19.111448 6.502326 0.0060873032
19.124771 6.5443296 0.0064678192
19.147579 6.5892668 3.1471252e-05
19.155729 6.6275702 0.0040884018
19.181526 6.6751633 -0.0033550262
19.18145 6.7080555 0.0057048798
19.204191 6.7539387 -0.00041389465
19.202988 6.7874165 0.0098247528
19.235149 6.8371792 -0.0027933121
19.241306 6.8741341 0.0017251968
19.262058 6.9174013 -0.0033025742
19.265034 6.9532719 0.0038042068
19.283598 6.9954948 0.0014448166
19.308527 7.0411558 -0.0067167282
19.317867 7.079195 -0.0047826767
19.312485 7.1102796 0.0085887909
19.343651 7.1587348 -0.0034837723
19.35717 7.1978998 -0.0040569305
19.37162 7.2380514 -0.0042285919
19.383947 7.2774801 -0.0026760101
19.387117 7.311779 0.0028514862
19.40369 7.3526535 0.00095462799
19.419201 7.3931675 -7.8201294e-05
19.430599 7.4316087 0.001074791
19.445114 7.4720821 -4.2915344e-05
19.459694 7.5103416 -0.00084877014
19.472153 7.5491447 -0.00055789948
19.486668 7.5896177 -0.0016756058
19.484467 7.6205196 0.0097379684
19.512644 7.6675858 -0.001955986
19.512568 7.6992111 0.0077323914
19.53862 7.7430201 -0.0009803772
19.544844 7.7790289 0.0032205582
19.5772 7.8259535 -0.01034832
19.576061 7.8584843 -0.00042724609
19.5854 7.8939896 0.0027608871
19.602102 7.9342394 -0.00039672852
19.612503 7.9713731 0.0013017654
19.631329 8.0123463 -0.0035820007
19.642788 8.0498428 -0.002746582
19.647018 8.0832357 0.0025472641
19.658482 8.1207314 0.0033826828
19.685661 8.1639557 -0.0065097809
19.692944 8.200325 -0.0031690598
19.699232 8.2341204 0.0013437271
19.716995 8.2734652 -0.0020494461
19.722157 8.3078442 0.0036439896
19.745224 8.3502636 -0.0046892166
19.754627 8.3860912 -0.0024452209
19.766155 8.4213724 -0.0012979507
19.778679 8.4592304 -0.001326561
19.789143 8.4954185 5.531311e-05
19.803787 8.5327311 -0.0010681152
19.813194 8.5685577 0.0011749268
19.835327 8.6087236 -0.0069303513
19.836311 8.6407099 0.0018949509
19.838419 8.6733799 0.0089139938
19.861485 8.7145329 0.0012083054
19.877192 8.7522078 -0.00077724457
19.885601 8.786726 0.0020093918
19.906675 8.8265305 -0.0052309036
19.917206 8.8617725 -0.0041675568
19.918188 8.8937588 0.0046567917
19.938202 8.9332008 -0.0017223358
19.94973 8.9684839 -0.00057601929
19.963375 9.0044899 -0.0011558533
19.964424 9.0367966 0.0067253113
19.990738 9.0780888 -0.0038843155
20.001333 9.1123848 -0.0031375885
20.011864 9.1476259 -0.002073288
20.023457 9.1832294 -0.001871109
20.03299 9.2171631 -0.00026226044
20.039276 9.2509575 0.0042495728
20.064529 9.2906208 -0.0048685074
20.074129 9.3248749 -0.0042057037
20.086716 9.3605194 -0.0039205551
20.093132 9.3936901 -0.00066947937
20.113148 9.4318657 -0.0064220428
20.116381 9.4639511 -0.00058460236
20.135334 9.5004959 -0.0048465729
20.144802 9.5353765 -0.0029201508
20.160702 9.5714798 -0.006485939
20.164997 9.6039276 -0.0015087128
20.166046 9.6349678 0.0069980621
20.195606 9.6751308 -0.0058879852
20.205139 9.7090645 -0.0042791367
20.214741 9.7433205 -0.0036144257
20.22633 9.7776556 -0.002784729
20.226446 9.8077097 0.0053243637
20.25289 9.8471088 -0.0059204102
20.247635 9.8750334 0.007443428
20.268841 9.9129448 -0.00043296814
20.276253 9.9461555 0.0029010773
20.279488 9.9769745 0.0093669891
20.278606 10.006988 0.017392159
20.284893 10.039515 0.022533417
20.28607 10.069931 0.029779434
20.278694 10.0984 0.044240952
20.276688 10.12773 0.054073334
20.284231 10.160316 0.056146622
20.276855 10.188784 0.070608139
20.281216 10.220285 0.075265884
20.285442 10.252411 0.081186295
20.281382 10.28134 0.091799736
20.278248 10.309987 0.10343933
20.277306 10.340947 0.11178207
20.277355 10.37068 0.12083435
20.276346 10.401319 0.13012314
20.269035 10.428841 0.14426708
20.274456 10.460703 0.14806366
20.278683 10.491562 0.15461159
20.278734 10.522562 0.1630373
16.39522 -1.4258938 0.001455307
16.425764 -1.3524761 -0.0032329559
16.439983 -1.2930393 0.002076149
16.462429 -1.2256584 0.0011281967
16.492039 -1.1544952 -0.0033330917
16.511368 -1.0904121 -0.0013828278
16.531822 -1.0269146 -0.00061225891
16.550152 -0.96413803 0.0018806458
16.575649 -0.89631367 0.00023555756
16.595173 -0.83380222 0.00060558319
16.624784 -0.76263809 -0.0038557053
16.641188 -0.70215797 -0.0012159348
16.658524 -0.64195728 0.002453804
16.685148 -0.57345104 -0.001001358
16.713894 -0.50548744 -0.0055494308
16.653774 -0.50772858 0.042463303
16.59757 -0.50632668 0.089870453
16.538445 -0.5085268 0.13796616
16.480316 -0.50815201 0.18489075
16.410904 -0.51869965 0.24002552
16.365984 -0.50764275 0.27985096
16.298565 -0.51430702 0.33326435
15.283253 -1.175581 0.98575878
15.283073 -1.1278305 1.0009203
15.278969 -1.0824566 1.0160627
15.294245 -1.0201244 1.0192547
15.284903 -0.98003769 1.0396471
15.279741 -0.93629169 1.0562801
15.277758 -0.88892746 1.0690699
15.280695 -0.83787823 1.0813341
15.278652 -0.79083252 1.095068
15.284704 -0.73775291 1.1050634
15.273438 -0.69869423 1.1249743
15.274443 -0.64994049 1.1373835
15.284611 -0.59478951 1.1451902
15.273275 -0.55478477 1.1654186
15.27634 -0.5043602 1.1764202
15.275356 -0.45822334 1.1899214
15.242519 -0.43589783 1.2238245
15.175774 -0.43652534 1.2782822
17.301302 1.2806988 0.0039358139
17.330376 1.3451977 -0.002825737
17.353271 1.4046888 -0.0053682327
17.369999 1.4591713 -0.0036859512
17.383675 1.5119438 -0.00067996979
17.396351 1.5621424 0.0034990311
17.424425 1.6253338 -0.0027189255
17.438036 1.6777859 0.0012321472
17.447659 1.7262735 0.006737709
17.484957 1.7961836 -0.0050287247
17.497766 1.8457565 -0.0021114349
17.50321 1.8918514 0.0065250397
17.523119 1.9474192 0.0056209564
17.545088 2.0046558 0.0033063889
17.556767 2.0535469 0.0080327988
17.577805 2.1097965 0.0053195953
17.607004 2.1724043 -0.0020780563
17.616627 2.2196255 0.0040550232
17.643835 2.2796164 -0.0022535324
17.658567 2.3314838 0.00051784515
17.67655 2.3834896 0.00038528442
17.692411 2.4360399 0.0013504028
17.705154 2.4852905 0.0052137375
17.72831 2.5409985 0.0014038086
17.744236 2.5926018 0.0020523071
17.758039 2.6422148 0.0050516129
17.784252 2.7008991 -0.00071048737
17.78883 2.7437944 0.0078363419
17.821278 2.8065405 -0.0024652481
17.842375 2.8593102 -0.004240036
17.845959 2.9021645 0.0042257309
17.872168 2.9595804 -0.0009098053
17.880924 3.0048685 0.0045061111
17.907202 3.0626059 -0.0015735626
17.918015 3.1082954 0.0030603409
17.939182 3.1626539 -0.00028514862
17.954109 3.2116833 0.0015354156
17.9701 3.2610741 0.0024929047
17.991331 3.3144855 -0.0011711121
18.000151 3.3588276 0.0039262772
18.011961 3.4058247 0.0080165863
18.043543 3.4653702 -0.0023736954
18.054424 3.5113811 0.0013170242
18.082817 3.5685759 -0.005859375
18.077177 3.6034441 0.0087804794
18.102587 3.6579819 0.0026111603
18.085598 3.6854095 0.024523735
18.016924 3.681221 0.079753876
17.942081 3.6720257 0.13920784
17.879642 3.6706314 0.19052601
17.844011 3.6874609 0.22448349
17.82596 3.7157936 0.24663258
17.815081 3.7479076 0.26526642
17.808443 3.7827368 0.27982521
17.814211 3.8253679 0.28624821
17.791983 3.8500404 0.31215477
17.802864 3.8960514 0.31584454
17.800341 3.9329519 0.3282156
17.810223 3.9776545 0.33245087
17.810818 4.0165863 0.34255123
17.816587 4.057951 0.3496027
17.81612 4.0965195 0.36056423
17.81048 4.1326561 0.37457752
18.067831 4.324852 0.2163372
18.036314 4.3437519 0.24810886
18.07844 4.4065933 0.23003864
17.83555 4.3007288 0.40169048
17.800978 4.3191872 0.43415928
17.744648 4.3250151 0.48094463
17.772177 4.3790092 0.47367859
17.738539 4.3971863 0.50717545
18.20042 4.7043667 0.21160793
18.164789 4.7211971 0.24556732
17.729906 4.5075245 0.5451498
17.772097 4.5694199 0.52676105
17.755045 4.5977936 0.5489912
17.796106 4.6590061 0.53241158
18.265545 4.9655581 0.23080158
18.257912 4.9978123 0.24653149
18.260757 5.035574 0.25427341
18.325832 5.1095142 0.22038937
18.289076 5.1256599 0.25615597
18.332325 5.1866493 0.23753452
18.358988 5.2387104 0.22955227
18.281893 5.2319498 0.2907362
18.374964 5.3200474 0.23925304
18.414097 5.377697 0.22344589
18.441824 5.4301195 0.21459961
18.446724 5.4682837 0.22156239
18.491165 5.5290108 0.20081615
18.500116 5.5701923 0.20590591
18.514374 5.6131821 0.20668602
18.50992 5.6477871 0.21920204
18.828871 5.8536768 0.013765335
18.874374 5.913496 -0.0072154999
18.868925 5.9455271 0.0064744949
18.89366 5.9940262 -0.0007352829
18.900686 6.0329132 0.0045003891
18.929598 6.0825377 -0.0052137375
18.934633 6.1200771 0.00048732758
18.940596 6.1586037 0.0065860748
18.97057 6.2085896 -0.003991127
18.981773 6.2498693 -0.0018863678
18.998281 6.2916908 -0.0034656525
19.005371 6.3308992 0.00082683563
19.017698 6.3715954 0.0017518997
19.032019 6.4136391 0.0022144318
19.049589 6.4570894 -0.00085544586
19.0588 6.4957542 0.0023393631
19.073118 6.5377979 0.0028018951
19.097919 6.5840836 -0.0040979385
19.107132 6.6227484 -0.00090312958
19.118399 6.6630821 0.00088500977
19.131853 6.7031937 0.0006313324
19.140003 6.741497 0.0046882629
19.163807 6.7877417 -0.0022926331
19.178324 6.8282146 -0.0034103394
19.192774 6.8696337 -0.0042085648
19.198801 6.9059458 0.002199173
19.210135 6.945334 0.0036697388
19.23188 6.9899101 -0.0019044876
19.241158 7.0276279 0.00097465515
19.255608 7.069047 0.0001745224
19.258646 7.1027036 0.0075922012
19.281456 7.1476407 0.0011568069
19.309568 7.1943865 -0.0095930099
19.309423 7.2282248 -0.0002155304
19.32905 7.2708101 -0.0034370422
19.342634 7.3090286 -0.0043258667
19.349787 7.346024 0.00027751923
19.375713 7.3917251 -0.0078020096
19.367277 7.4210987 0.0068941116
19.39015 7.4650908 0.00014019012
19.400553 7.502224 0.0018396378
19.417187 7.5421534 -0.00037479401
19.43482 7.5833902 -0.0031337738
19.447277 7.6221933 -0.0028419495
19.458675 7.6606355 -0.0016899109
19.475445 7.6999388 -0.0051660538
19.482595 7.7369347 -0.0005645752
19.495186 7.7751131 -0.0015354156
19.503399 7.811202 0.0028333664
19.52322 7.8534837 -0.0025959015
19.527449 7.8868761 0.0026988983
19.551382 7.9299622 -0.0042896271
19.562843 7.9674573 -0.0034542084
19.577358 8.0066633 -0.0039434433
19.585705 8.0433941 -0.0014657974
19.593052 8.0775509 0.0021848679
19.608625 8.1171188 0.00083446503
19.627516 8.1571465 -0.004365921
19.639973 8.1946831 -0.0034475327
19.643143 8.2277136 0.0027065277
19.662895 8.2684059 -0.0011482239
19.676611 8.3059998 -0.0032997131
19.689068 8.3435364 -0.0023813248
19.699469 8.3794031 -5.531311e-05
19.705822 8.4135189 0.0035123825
19.726702 8.454895 -0.0021505356
19.737167 8.4910831 -0.00076961517
19.754995 8.5294809 -0.0044803619
19.754982 8.5614281 0.0042619705
19.778046 8.6025801 -0.0034418106
19.782213 8.6356506 0.0027961731
19.808462 8.6778889 -0.0074977875
19.808384 8.7095137 0.0021905899
19.823093 8.7471485 0.00012207031
19.842047 8.7862301 -0.0053958893
19.843029 8.8182163 0.0034294128
19.862976 8.857338 -0.0020065308
19.877752 8.8940268 -0.0043916702
19.881916 8.9270983 0.0018463135
19.898813 8.96451 -0.0022630692
19.910275 9.0007381 -0.00080013275
19.921865 9.0363417 -0.00059890747
19.940754 9.0751019 -0.0051717758
19.953407 9.1110668 -0.0058317184
19.958696 9.1435547 -0.00077438354
19.962927 9.1756802 0.0051469803
19.98188 9.2147608 -0.00037097931
19.996655 9.2514477 -0.0027551651
20.00712 9.2863693 -0.00074672699
20.026201 9.3235579 -0.0068998337
20.028311 9.3549604 0.00074577332
20.029356 9.3872681 0.0086269379
20.06522 9.4305477 -0.0091161728
20.06945 9.4626732 -0.0031957626
20.073679 9.4947987 0.0027256012
20.094753 9.5333357 -0.0038900375
20.102165 9.5665455 -0.00055599213
20.118065 9.6026497 -0.0041217804
20.124416 9.635499 7.4386597e-05
20.135014 9.6697941 0.00082111359
20.15403 9.7066622 -0.0043859482
20.148777 9.7358541 0.008351326
20.172037 9.774168 -0.00030517578
20.182632 9.8084641 0.00044059753
20.204899 9.8454704 -0.0076713562
20.204948 9.8764706 0.00075435638
20.218662 9.9115295 -0.0001411438
20.232504 9.9459639 -0.0022983551
20.236799 9.9784107 0.0026779175
20.256943 10.014694 -0.0037097931
20.269659 10.049713 -0.0046873093
20.275013 10.081254 5.3405762e-05
20.282492 10.114786 0.0024423599
20.27412 10.141946 0.017450333
20.281597 10.174211 0.020465851
20.27853 10.203179 0.031160355
20.279642 10.234542 0.038723946
20.276577 10.263511 0.049419403
20.275501 10.293828 0.059651375
20.279861 10.325329 0.064311028
20.276794 10.354298 0.075006485
20.27154 10.38349 0.087742805
20.2759 10.41499 0.092401505
20.283377 10.447254 0.09541893
20.267643 10.472205 0.11551666
20.285664 10.507765 0.1108532
20.269867 10.533661 0.13127041
20.280529 10.567011 0.13169956
20.270098 10.593769 0.14748573
20.253174 10.620251 0.16908073
20.272324 10.655226 0.16323948
20.272373 10.686226 0.17166519
16.346071 -1.3914909 -0.0040006638
16.36845 -1.3244305 -0.0040044785
16.391829 -1.2573299 -0.0039243698
16.411287 -1.1938725 -0.0032367706
16.427559 -1.1327658 0.00066661835
16.455116 -1.0632725 -0.0023880005
16.47245 -1.0005379 2.5749207e-05
16.492838 -0.93609238 0.0011110306
16.513355 -0.87353992 0.0015630722
16.534742 -0.80905533 0.0027332306
16.563419 -0.73887825 -0.0021276474
16.578766 -0.68002605 0.0020027161
16.608379 -0.60886192 -0.0024576187
16.626904 -0.54892635 -0.00091457367
16.622931 -0.50544548 0.013594627
16.562744 -0.50800514 0.062552452
16.496387 -0.51430893 0.11510563
16.428036 -0.52322769 0.16875172
16.379066 -0.51645565 0.21107388
16.321934 -0.5160408 0.25808048
16.264736 -0.51467896 0.30540562
16.203487 -0.51633644 0.35459805
15.300711 -1.1823063 0.91164207
15.286386 -1.146224 0.93350506
15.287329 -1.0965233 0.9462328
15.287212 -1.047184 0.95982265
15.284042 -1.000824 0.97536469
15.291155 -0.94738197 0.98449898
15.278824 -0.90868473 1.00527
15.282885 -0.85695267 1.015728
15.287876 -0.80423641 1.0265837
15.277603 -0.76513577 1.0465765
15.275497 -0.71714497 1.0606289
15.280619 -0.66631985 1.0708494
15.281624 -0.61756516 1.0832605
15.287745 -0.56543159 1.0929394
15.276342 -0.52574825 1.11411
15.278479 -0.47631168 1.1247129
15.267141 -0.43757343 1.1455688
15.211809 -0.43170357 1.1924362
15.141014 -0.43661594 1.2493916
15.076387 -0.43651962 1.302124
17.319721 1.4890881 -0.0054512024
17.330408 1.5379381 -0.00080966949
17.35125 1.5957603 -0.0019426346
17.361868 1.6455555 0.0030183792
17.39094 1.7087879 -0.003118515
17.395452 1.7551632 0.004491806
17.428637 1.8192005 -0.0032052994
17.44138 1.870986 -0.0005979538
17.46129 1.9265537 -0.001502037
17.485313 1.9854603 -0.0052232742
17.493879 2.0335865 0.0011434555
17.511793 2.0865383 0.0013284683
17.531771 2.141161 0.00010490417
17.55168 2.1967287 -0.00079917908
17.561304 2.2452164 0.0047044754
17.586452 2.3035383 -0.00019550323
17.610542 2.3602314 -0.0036048889
17.623285 2.4107504 -0.00036907196
17.634035 2.4586544 0.0039548874
17.665356 2.5207176 -0.0045404434
17.675043 2.5669918 0.0012750626
17.678627 2.6098461 0.0097389221
17.710012 2.6722307 0.00030040741
17.73304 2.7285614 -0.0022468567
17.741732 2.7747955 0.0034856796
17.766016 2.8299179 -0.0015039444
17.780882 2.8798923 0.00063323975
17.798864 2.9331665 -0.00012779236
17.813793 2.9821949 0.0016937256
17.837946 3.0379419 -0.0020332336
17.850882 3.0856228 0.00025081635
17.862692 3.1338873 0.0037126541
17.888037 3.1893711 -0.0021390915
17.897728 3.2356453 0.0036754608
17.922009 3.2907677 -0.0013141632
17.93395 3.3371401 0.0015144348
17.95505 3.3899097 -0.00026035309
17.971104 3.439621 -0.00024700165
17.99227 3.492713 -0.0029659271
17.997972 3.5350227 0.0044021606
18.018206 3.5858593 0.0019102097
18.038378 3.6376438 -0.00026416779
18.057484 3.689065 -0.00157547
17.990932 3.6856003 0.051930428
17.913963 3.6756802 0.11310863
17.841305 3.6687965 0.16926384
17.800501 3.6819248 0.2069006
17.801029 3.7205353 0.2179451
17.80879 3.7645149 0.22390556
17.820734 3.8108864 0.22673512
17.825506 3.85221 0.23370361
17.826033 3.8920879 0.2441206
17.824507 3.9290285 0.25657272
17.817806 3.9635353 0.27207661
17.802874 3.9939003 0.29195309
17.813818 4.0389643 0.29532528
17.813351 4.0775337 0.30628872
17.810825 4.1144333 0.31865978
17.806246 4.1496639 0.33243656
18.010786 4.3108292 0.2086935
17.991745 4.336586 0.23201275
17.972631 4.3632908 0.25565147
17.871721 4.3422318 0.33255863
17.811211 4.3444004 0.38310337
17.805632 4.37959 0.39680004
17.796873 4.4124279 0.41370964
17.790236 4.4472561 0.42826748
17.776365 4.4767151 0.44791031
17.759314 4.5050888 0.4701395
17.749556 4.5378857 0.48696804
17.711933 4.5546341 0.52076054
17.728985 4.6018505 0.52211285
18.168369 4.8913097 0.2401371
18.200144 4.9467506 0.22942257
18.198746 4.9830666 0.24061298
18.220169 5.0323715 0.23662472
18.190708 5.0529423 0.26698971
18.260958 5.1293163 0.23005581
18.279266 5.17659 0.2283392
18.286224 5.2164249 0.23389244
18.321838 5.3096676 0.2310009
18.35998 5.3672771 0.21511173
18.313932 5.3776512 0.25674343
18.332369 5.4243021 0.25376225
18.421391 5.5093803 0.20414925
18.404467 5.535862 0.22574329
18.425955 5.5842218 0.22143841
18.448507 5.6329441 0.21627045
18.472181 5.6810818 0.20992374
18.797235 5.8903894 0.0018377304
18.811621 5.9327545 0.0013551712
18.833109 5.979847 -0.002322197
18.840132 6.0187349 0.0029153824
18.858763 6.0625467 -0.0010166168
18.875141 6.1062603 -0.0019636154
18.893642 6.1519642 -0.0052595139
18.909025 6.1943703 -0.0056600571
18.91399 6.2315884 0.00098514557
18.938789 6.2791405 -0.0065412521
18.935465 6.3118954 0.0054216385
18.955027 6.3566933 0.0018901825
18.974585 6.4014912 -0.0016422272
18.979618 6.4390306 0.0040569305
19.009594 6.4877501 -0.0058927536
19.01363 6.5239811 0.0003528595
19.024832 6.5639935 0.0030851364
19.0424 6.6074448 1.6212463e-05
19.060966 6.6509352 -0.0029706955
19.067059 6.6875687 0.0024938583
19.08456 6.7306976 0.00036907196
19.100073 6.7724781 -0.0012922287
19.110281 6.811183 0.0019845963
19.135147 6.85779 -0.005859375
19.135067 6.8906822 0.0031995773
19.144278 6.929347 0.0063943863
19.160786 6.9711685 0.0048160553
19.182531 7.0157442 -0.00075817108
19.202223 7.05865 -0.0049257278
19.205263 7.0935736 0.0018644333
19.22283 7.1357565 -0.00057697296
19.238342 7.1762695 -0.0016107559
19.256971 7.2188144 -0.0049152374
19.255833 7.2526126 0.0043783188
19.272469 7.2925415 0.0021657944
19.294216 7.3358498 -0.002781868
19.303556 7.373889 -0.00084781647
19.316946 7.4136796 -0.00015735626
19.323168 7.449688 0.0040454865
19.344978 7.4920502 -0.0012187958
19.354256 7.5297689 0.0016593933
19.377192 7.572814 -0.0054121017
19.386469 7.6105318 -0.0025339127
19.394747 7.6469431 0.00088977814
19.415628 7.6883183 -0.00477314
19.428087 7.7271214 -0.004483223
19.435305 7.7631707 -0.00019836426
19.455061 7.8051305 -0.0046815872
19.457102 7.8387465 0.0026531219
19.476858 7.8794394 -0.0012025833
19.491436 7.9189663 -0.0026369095
19.506016 7.9572258 -0.003443718
19.510117 7.9925108 0.0024852753
19.523636 8.0304089 0.0025405884
19.544582 8.070837 -0.0034399033
19.556044 8.1083336 -0.0026035309
19.57069 8.1469145 -0.0043554306
19.586264 8.1864815 -0.0057067871
19.58625 8.2171602 0.0036640167
19.605074 8.2581339 -0.0012197495
19.61647 8.2953081 0.0005607605
19.627996 8.3318577 0.0010795593
19.639526 8.3696747 0.00097084045
19.659409 8.4084749 -0.0035200119
19.66563 8.4432163 0.0013103485
19.679279 8.4817562 -0.0005235672
19.691868 8.5186672 -0.00086688995
19.705517 8.5559406 -0.0020713806
19.713924 8.5904579 0.00071525574
19.732748 8.6301641 -0.0035400391
19.74527 8.6667547 -0.0029392242
19.759979 8.7043886 -0.0050058365
19.772503 8.7409782 -0.0044050217
19.771492 8.7716179 0.0048818588
19.793564 8.8127298 -0.0029058456
19.805092 8.848012 -0.0017595291
19.821857 8.8860483 -0.0046072006
19.834444 8.9229593 -0.0049514771
19.837677 8.9550447 0.00088691711
19.851261 8.9919968 0.00062656403
19.869219 9.0297689 -0.0043458939
19.872322 9.06248 0.0027532578
19.885971 9.098485 0.0021753311
19.898623 9.1344509 0.0015144348
19.914394 9.1711788 -0.00078868866
19.932285 9.209898 -0.0054445267
19.94381 9.2451801 -0.0042982101
19.960709 9.2825928 -0.0084075928
19.961885 9.3130074 -0.001162529
19.977654 9.3497362 -0.0034646988
19.988121 9.3846569 -0.0014572144
19.999712 9.4202604 -0.0012550354
20.019726 9.458437 -0.0070075989
20.01984 9.4884901 0.0011005402
20.043037 9.52775 -0.0072393417
20.050449 9.5609608 -0.0039052963
20.052622 9.5926838 0.0027952194
20.069389 9.6294537 0.00057506561
20.083231 9.663888 -0.0015830994
20.090645 9.6970978 0.0017518997
20.109596 9.7349119 -0.0031385422
20.113892 9.7673588 0.0018367767
20.143454 9.8075218 -0.011048317
20.146687 9.8383398 -0.0045833588
20.155224 9.8722324 -0.0030565262
20.167875 9.9069309 -0.0030889511
20.178471 9.941227 -0.0023431778
20.185949 9.9734907 0.00067424774
20.201847 10.008327 -0.0022640228
20.209261 10.041538 0.0010700226
20.231525 10.078545 -0.0070409775
20.23476 10.11063 -0.001203537
20.249598 10.145104 -0.0032787323
20.264502 10.1799 -0.0062980652
20.268862 10.211401 -0.0016403198
20.283636 10.246822 -0.0033979416
20.28163 10.276153 0.0064353943
20.275314 10.304982 0.02003479
20.275431 10.333769 0.028769493
20.28503 10.368025 0.029434204
20.280903 10.396631 0.040991783
20.271404 10.424377 0.057178497
20.27689 10.455294 0.060657501
20.287485 10.488321 0.062031746
20.271751 10.51454 0.081503868
20.275982 10.546665 0.087423325
20.268736 10.574509 0.10062313
20.275085 10.606091 0.10544586
20.273144 10.635742 0.11433506
20.2785 10.667284 0.11907482
20.274307 10.696836 0.13094997
20.274357 10.72657 0.1400032
20.266052 10.754051 0.15406609
20.274656 10.786999 0.15527439
20.270462 10.816553 0.16714954
20.275753 10.847773 0.17283535
16.287489 -1.4122181 -0.014026642
16.292482 -1.359499 -0.0031709671
16.307693 -1.2987556 0.0015935898
16.336376 -1.2285786 -0.0032663345
16.354643 -1.1648579 -0.00045490265
16.381138 -1.095726 -0.0026454926
16.397413 -1.0346203 0.0012550354
16.417799 -0.97017384 0.0023422241
16.439312 -0.90631485 0.0022506714
16.466869 -0.8368206 -0.0008020401
16.491434 -0.76998329 -0.0028476715
16.501667 -0.71451092 0.0040149689
16.528229 -0.64632416 0.0015077591
16.547749 -0.58507919 0.0025043488
16.569263 -0.52122021 0.002412796
16.520294 -0.51444817 0.044734001
16.470329 -0.50771713 0.08697319
16.39687 -0.52001476 0.14335155
16.344847 -0.51622009 0.18762398
16.284595 -0.51783562 0.23690128
16.227526 -0.51583099 0.28233433
16.165155 -0.51817131 0.33333683
15.28301 -1.1658573 0.87473392
15.279968 -1.1213894 0.88964176
15.283966 -1.0687113 0.90041637
15.283913 -1.020318 0.91368866
15.289904 -0.96755981 0.9246273
15.277571 -0.92886353 0.94540215
15.281694 -0.87807751 0.95554066
15.28158 -0.82873917 0.96913052
15.274361 -0.78666306 0.98717022
15.277357 -0.73529243 0.99848938
15.284473 -0.68185043 1.0076246
15.279375 -0.63905144 1.0239382
15.279324 -0.59065819 1.0372105
15.278275 -0.54357529 1.0510292
15.281273 -0.49347115 1.062974
15.276176 -0.44940376 1.07866
15.224955 -0.44146442 1.1233425
15.168558 -0.43468857 1.1704445
15.097763 -0.43959999 1.2274008
15.047539 -0.42908382 1.2709084
17.308279 1.6737452 0.0057296753
17.338409 1.737339 -0.0012683868
17.350092 1.7874966 0.002828598
17.365887 1.8409929 0.0041093826
17.383675 1.8958368 0.0049304962
17.4077 1.9547434 0.0012083054
17.421371 2.0062485 0.0048437119
17.445461 2.0629425 0.0014324188
17.463379 2.1171618 0.00099086761
17.479174 2.1693916 0.0029001236
17.498022 2.224596 0.0028562546
17.514879 2.2771873 0.0039052963
17.52981 2.3274841 0.0050964355
17.550777 2.3834133 0.003329277
17.56558 2.4343338 0.0057840347
17.593782 2.4943657 -0.00044155121
17.606653 2.5429926 0.0021591187
17.627625 2.5976543 0.0010194778
17.645605 2.6509285 0.00026035309
17.662464 2.7035198 0.0013065338
17.676331 2.7534542 0.003361702
17.691259 2.8024826 0.0051813126
17.710238 2.8557959 0.0045042038
17.732399 2.9101944 0.0012407303
17.750381 2.9622002 0.0011081696
17.763252 3.0108271 0.0037088394
17.774069 3.057785 0.0077161789
17.796164 3.1118622 0.005396843
17.820448 3.1669846 0.00040817261
17.836372 3.2173214 0.0016822815
17.84931 3.2650013 0.0039644241
17.860123 3.3106909 0.0086011887
17.890642 3.369875 -0.00092792511
17.902452 3.416873 0.003162384
17.936024 3.4777679 -0.007692337
17.942726 3.5213852 -0.00086975098
17.94544 3.5610399 0.0075073242
17.97908 3.6222553 -0.0042915344
17.980669 3.6624947 0.0052633286
17.945105 3.6783772 0.03890419
17.878487 3.6745911 0.093355179
17.808817 3.6703625 0.14850521
17.790768 3.6974277 0.17127991
17.800653 3.7421312 0.17551422
17.803173 3.7833567 0.18546963
17.793415 3.8161545 0.20229626
17.792019 3.8537369 0.21286011
17.804892 3.8998299 0.21671581
17.820015 3.948555 0.21632957
17.820547 3.9871635 0.22737408
17.822136 4.0274029 0.23692989
17.82379 4.0654278 0.2467947
17.81609 4.0998955 0.26221657
17.814564 4.1381035 0.27404022
17.80381 4.1695919 0.29141331
17.838509 4.2286339 0.28000832
17.932255 4.3227701 0.22956371
17.932911 4.360754 0.23934841
17.889984 4.3744268 0.27808094
17.804596 4.3619347 0.34521294
17.810429 4.4036217 0.35131931
17.795498 4.4327173 0.37182426
17.80233 4.4744434 0.37801266
17.799807 4.511344 0.39038277
17.799337 4.5499134 0.40134621
17.793827 4.584156 0.4147234
17.791302 4.6210566 0.42709351
17.783604 4.6542559 0.44314098
17.741737 4.6682911 0.48101139
17.733973 4.7024364 0.49737644
18.186827 4.9962578 0.20828915
18.140844 5.0069523 0.2489748
18.165384 5.0582905 0.24271679
18.182695 5.1042576 0.24154377
18.201996 5.1528416 0.2392807
18.22654 5.2029114 0.23365021
18.18885 5.218071 0.26901722
18.255985 5.2924137 0.23435307
18.250469 5.3253899 0.24835873
18.26333 5.4059629 0.25970173
18.364822 5.4966316 0.20226383
18.306034 5.538414 0.26110268
18.322281 5.5840206 0.26079082
18.37813 5.6487064 0.2337122
18.731249 5.8724928 0.0070800781
18.760033 5.9240093 -0.0020008087
18.764006 5.9611874 0.0045623779
18.784496 6.0069723 0.0014295578
18.802 6.0513687 -0.0013227463
18.80385 6.0878229 0.0069627762
18.829647 6.135417 -0.00048065186
18.842907 6.1783657 0.00021743774
18.849995 6.2163076 0.0051364899
18.870552 6.2611465 0.0016870499
18.88706 6.3042345 -0.0005197525
18.892092 6.3430414 0.0045509338
18.913712 6.3882418 0.00023937225
18.932276 6.4329996 -0.0033750534
18.942482 6.4717054 -9.8228455e-05
18.959986 6.5148344 -0.0022220612
18.968134 6.5531368 0.0018348694
18.982521 6.5955019 0.0013523102
19.003208 6.6397161 -0.0033588409
19.007177 6.6756268 0.0038299561
19.036158 6.7243052 -0.0062017441
19.046495 6.7636528 -0.0048141479
19.060879 6.8047504 -0.0046682358
19.079445 6.8482409 -0.0076551437
19.083481 6.8832049 -0.00078201294
19.100052 6.9253473 -0.0033073425
19.107075 6.9629674 0.0025577545
19.125706 7.0055122 -0.00074672699
19.138165 7.0455828 -0.0010843277
19.154671 7.0861368 -0.0020360947
19.158707 7.1223679 0.0042104721
19.186756 7.1687918 -0.0055932999
19.19079 7.2050238 0.00065040588
19.20418 7.2448139 0.0013408661
19.225061 7.2874565 -0.0049495697
19.23321 7.3244925 -0.00026416779
19.247726 7.3649654 -0.0013809204
19.261116 7.4047551 -0.00069141388
19.271452 7.4428349 0.0013237
19.277674 7.4775763 0.0061559677
19.309965 7.5254478 -0.0070981979
19.320301 7.5635281 -0.0050830841
19.325397 7.5988531 0.00092792511
19.345152 7.6408134 -0.0035552979
19.352436 7.6771836 -0.0002155304
19.370068 7.7171531 -0.0023479462
19.376291 7.7531614 0.0018558502
19.392862 7.7940364 -4.196167e-05
19.407444 7.8335633 -0.0014743805
19.423019 7.8718629 -0.0021982193
19.43866 7.9117513 -0.0044946671
19.446939 7.9481626 -0.0010728836
19.45734 7.9852967 0.00062561035
19.466681 8.022068 0.0031862259
19.483381 8.0610514 0.00065517426
19.495905 8.0989084 0.00062942505
19.512606 8.1378918 -0.0019025803
19.531364 8.1785431 -0.0058403015
19.535528 8.2116156 0.00039768219
19.531273 8.2433825 0.011961937
19.564754 8.2897224 -0.00278759
19.573099 8.3251877 0.00031852722
19.593977 8.3652954 -0.0047168732
19.605507 8.401844 -0.004199028
19.616966 8.4393406 -0.0033626556
19.623188 8.4728146 0.0020942688
19.635777 8.510994 0.001124382
19.647236 8.5472212 0.0025873184
19.657768 8.5824633 0.003651619
19.672348 8.6207228 0.0028457642
19.682814 8.6569099 0.0042266846
19.701702 8.6956701 -0.00034713745
19.715286 8.7326221 -0.00060844421
19.723761 8.7674618 0.0012359619
19.742584 8.8071671 -0.0030212402
19.754173 8.8427715 -0.0028190613
19.760397 8.877512 0.0020112991
19.776299 8.9148827 -0.0021800995
19.784706 8.9494019 0.00060749054
19.808834 8.9896479 -0.0073318481
19.816181 9.0238056 -0.0036821365
19.82877 9.0607166 -0.0040245056
19.828754 9.0926628 0.0047168732
19.837227 9.126235 0.0071878433
19.86348 9.1672058 -0.0024757385
19.876129 9.2031708 -0.0031366348
19.888718 9.2388134 -0.0028524399
19.905548 9.2759037 -0.0060176849
19.908716 9.3076687 0.0007648468
19.92137 9.3436337 0.00010490417
19.937206 9.3806829 -0.0031433105
19.952976 9.4174118 -0.0054473877
19.962509 9.4513464 -0.0038375854
19.963556 9.4823866 0.0046710968
19.988874 9.5223703 -0.0053939819
19.997412 9.556263 -0.0038671494
20.008938 9.5915451 -0.0027208328
20.017414 9.6251183 -0.00024986267
20.023762 9.6579666 0.0039463043
20.039598 9.6937504 0.0013256073
20.056559 9.7302151 -0.0031013489
20.06921 9.7649126 -0.0031347275
20.073505 9.7973595 0.0018415451
20.087219 9.8324184 0.00094604492
20.099937 9.8674374 -3.3378601e-05
20.116831 9.9035816 -0.0035152435
20.127426 9.9366102 -0.0021400452
20.134903 9.9701424 0.00024795532
20.144505 10.00313 0.0015392303
20.16876 10.041485 -0.0070343018
20.174049 10.073972 -0.0019760132
20.177349 10.10511 0.0035448074
20.196365 10.141977 -0.0016613007
20.209148 10.174784 -0.0023288727
20.216625 10.208315 6.0081482e-05
20.221981 10.239857 0.0047998428
20.247429 10.277947 -0.0058965683
20.257959 10.311922 -0.0042057037
20.26656 10.343602 -0.0023698807
20.277222 10.376951 -0.0019407272
20.276211 10.40759 0.0073480606
20.277325 10.437685 0.015538216
20.273258 10.466614 0.026150703
20.277555 10.497792 0.031754494
20.277605 10.528793 0.040180206
20.276661 10.558485 0.049150467
20.276711 10.588218 0.058202744
20.276829 10.618272 0.066311836
20.275881 10.647964 0.075281143
20.27063 10.677156 0.088018417
20.263382 10.705 0.10121918
20.266552 10.736764 0.10800171
20.265671 10.765511 0.1166544
20.272087 10.797413 0.12053394
20.267895 10.826967 0.1324091
20.268011 10.85702 0.14051628
20.277609 10.890009 0.14180946
20.276665 10.919701 0.15077877
20.269352 10.947223 0.16492367
16.219564 -1.3877888 -0.0061731339
16.232784 -1.3296604 -0.0003194809
16.257225 -1.2621975 -0.0011024475
16.287832 -1.1884594 -0.0067338943
16.292889 -1.1366882 0.0038051605
16.313215 -1.0712967 0.0052080154
16.346876 -0.99711609 -0.001121521
16.360228 -0.93961239 0.0034704208
16.384665 -0.87214851 0.0026874542
16.408169 -0.8056736 0.0015048981
16.433733 -0.73879623 -0.00045776367
16.451134 -0.67700672 0.0016355515
16.480875 -0.60773659 -0.0034589767
16.505377 -0.54121971 -0.0045595169
16.491186 -0.50703049 0.016669273
16.422768 -0.51500416 0.070632935
16.35548 -0.52229309 0.12278557
16.300341 -0.52052879 0.16932869
16.24115 -0.52051544 0.21711826
16.181896 -0.52082443 0.26584911
16.135981 -0.50980759 0.30559158
16.065508 -0.51818275 0.36033249
15.279465 -1.0890284 0.84345341
15.286579 -1.0355864 0.85258389
15.284403 -0.9879179 0.86758137
15.283291 -0.93988609 0.88171482
15.280251 -0.89414978 0.89599609
15.280197 -0.84702492 0.90989494
15.272976 -0.80368137 0.92730808
15.278034 -0.75190926 0.93784809
15.283091 -0.70013714 0.94838619
15.274811 -0.65842247 0.96729183
15.276878 -0.60930634 0.97883606
15.275829 -0.56222153 0.99265575
15.28301 -0.50845909 1.000844
15.272671 -0.46841335 1.0211535
15.24501 -0.44112206 1.0507507
15.19173 -0.43485165 1.096839
15.120005 -0.44074917 1.1533947
15.054319 -0.44101334 1.2069893
14.988766 -0.44190216 1.2593222
14.92308 -0.44216728 1.3129168
16.998606 1.4791183 0.15424252
16.961977 1.4959068 0.18812084
17.311832 1.8296261 -0.0045404434
17.321455 1.8781137 0.00096416473
17.342361 1.9349899 -0.0004863739
17.362204 1.9902363 -0.00044631958
17.379128 2.043148 -0.00034427643
17.402092 2.1016922 -0.0032024384
17.413773 2.1505833 0.0015230179
17.430632 2.2044411 0.0019407272
17.456778 2.2640705 -0.0035028458
17.467525 2.3119736 0.00082111359
17.487434 2.3662748 0.00054359436
17.507343 2.4205751 0.00026416779
17.518095 2.4697456 0.0039625168
17.532961 2.519721 0.0061006546
17.557112 2.5767345 0.0017461777
17.574034 2.6296463 0.0018482208
17.587837 2.6792603 0.0048484802
17.613983 2.7376223 3.0517578e-05
17.626921 2.7853031 0.0023145676
17.630438 2.827837 0.011724472
17.667994 2.8926945 -0.00068283081
17.678743 2.9405975 0.0036420822
17.704952 2.9980145 -0.0014925003
17.717892 3.0456944 0.00079059601
17.744101 3.1031113 -0.0043449402
17.758034 3.1520996 -0.0026073456
17.770906 3.1994591 0.00062179565
17.791008 3.2521877 -0.0012350082
17.798771 3.2961683 0.0047245026
17.811708 3.3438492 0.0070075989
17.844154 3.4040594 -0.0020389557
17.866379 3.4575129 -0.0056200027
17.874077 3.5024376 0.0006570816
17.886082 3.5478649 0.0031671524
17.909304 3.6013584 -0.00033092499
17.918062 3.6466465 0.0050840378
17.916599 3.6839085 0.016592026
17.834522 3.671876 0.079874992
17.801079 3.6884823 0.11179256
17.796431 3.724659 0.12588692
17.803135 3.7682772 0.1327095
17.80167 3.8068066 0.14358997
17.791849 3.839282 0.16136265
17.793503 3.8785753 0.17060184
17.791975 3.9155149 0.18305397
17.794628 3.9561157 0.19174671
17.799273 3.998065 0.19997692
17.787521 4.0295143 0.21726704
17.793228 4.0705566 0.22526264
17.813461 4.1213932 0.22277069
17.811934 4.1596012 0.23459625
17.821817 4.2043047 0.23883152
17.817236 4.2395344 0.25261021
17.896517 4.3241978 0.21170807
17.8713 4.3474817 0.2379961
17.891533 4.3983192 0.2355032
17.810324 4.3882198 0.29950428
17.813038 4.4278736 0.30787945
17.792936 4.4545383 0.3314352
17.787292 4.4894066 0.3460741
17.797176 4.5328417 0.3509388
17.789541 4.5663624 0.36604023
17.771492 4.594696 0.38818741
17.790728 4.6429577 0.38686943
17.793446 4.6826115 0.3952446
17.803394 4.7263689 0.39916325
17.78017 4.7510014 0.42498779
17.796352 4.797554 0.42499542
17.783545 4.82864 0.44314671
17.828787 4.8909779 0.42406273
17.892609 4.9648609 0.3932476
18.13402 5.1361313 0.24372959
18.17309 5.1947289 0.22824001
18.194576 5.2430878 0.22393417
18.175535 5.2688456 0.24725437
18.243727 5.3435497 0.21173
18.192507 5.3527584 0.25578308
18.236816 5.4128418 0.23692608
18.216709 5.4382372 0.2611084
18.292263 5.515152 0.22049046
18.290867 5.5514669 0.23168278
18.224121 5.5521088 0.28551197
18.678665 5.8662424 0.0023870468
18.696106 5.9103174 0.00057888031
18.707308 5.9515972 0.0026836395
18.730919 5.9994135 -0.0027179718
18.73595 6.036953 0.0029821396
18.75127 6.0803051 0.0028982162
18.768707 6.1243801 0.0010910034
18.787205 6.1688175 -0.0015792847
18.79423 6.2077045 0.003657341
18.807621 6.2487621 0.0037202835
18.828241 6.2951889 -0.0013017654
18.833275 6.3327284 0.0043983459
18.861063 6.38167 -0.0035085678
18.857801 6.4147453 0.0075111389
18.88048 6.4603071 0.0023355484
18.892809 6.5010033 0.0032606125
18.91655 6.5469265 -0.0027751923
18.929808 6.5886097 -0.0014505386
18.940081 6.6289024 0.00025463104
18.961828 6.6722107 -0.0046920776
18.972034 6.712183 -0.0020427704
18.988541 6.7540054 -0.0036211014
18.991516 6.7898741 0.003484726
19.013134 6.8350744 -0.00082683563
19.019291 6.8707619 0.004322052
19.037922 6.9145737 0.0003900528
19.060665 6.9591904 -0.0051021576
19.067755 6.9971318 -0.00018310547
19.083265 7.0389128 -0.0018444061
19.101959 7.0805101 -0.0054664612
19.104935 7.1163807 0.0016412735
19.12562 7.1593266 -0.0024423599
19.139074 7.1994381 -0.002696991
19.145166 7.2360721 0.0027666092
19.159681 7.2752776 0.0022783279
19.173138 7.3153887 0.0020227432
19.188648 7.3559017 0.00098896027
19.19998 7.394022 0.0030870438
19.218609 7.4365673 -0.00021648407
19.24367 7.4803352 -0.0090122223
19.237289 7.5113792 0.0042772293
19.255983 7.5529776 0.00065612793
19.266254 7.5907364 0.0036153793
19.287136 7.633379 -0.0026760101
19.295349 7.6694689 0.0016927719
19.311987 7.7093983 -0.00052165985
19.32962 7.7506347 -0.003279686
19.332659 7.7855577 0.0035085678
19.356594 7.8286433 -0.0034790039
19.354523 7.8601875 0.0060434341
19.378456 7.9032736 -0.00094509125
19.390913 7.9408092 -2.6702881e-05
19.401251 7.9788895 0.0019884109
19.414835 8.0171089 0.0011005402
19.432596 8.0564528 -0.0022935867
19.442999 8.093586 -0.00059509277
19.458572 8.1331539 -0.0019464493
19.472092 8.171051 -0.0018901825
19.483683 8.207922 -0.0023174286
19.495081 8.2450972 -0.00053596497
19.506477 8.2822714 0.001244545
19.513826 8.3176956 0.0042676926
19.526283 8.3552313 0.0051860809
19.551474 8.3971071 -0.004242897
19.552454 8.4290943 0.0045804977
19.564978 8.4669514 0.0045547485
19.576504 8.5035009 0.0050735474
19.597385 8.5436096 3.8146973e-05
19.608912 8.5801592 0.00055599213
19.614071 8.6145382 0.0062494278
19.64238 8.6571779 -0.0048217773
19.637127 8.6876373 0.0072870255
19.660128 8.7284689 0.00052642822
19.665483 8.7612772 0.0046405792
19.690605 8.8028316 -0.0038433075
19.707373 8.840868 -0.00669384
19.717838 8.8770561 -0.0053119659
19.719883 8.9094048 0.0026502609
19.739897 8.9475803 -0.0031013489
19.749432 8.9840488 -0.0027484894
19.770441 9.0235319 -0.0090456009
19.785151 9.0598993 -0.010485649
19.796612 9.0961266 -0.009021759
19.794605 9.1267262 0.00018215179
19.809315 9.1630926 -0.0012569427
19.830389 9.2016296 -0.0078735352
19.833492 9.2343397 -0.00077342987
19.84502 9.2696209 0.00037384033
19.856611 9.3052254 0.00057506561
19.871384 9.3419132 -0.0018100739
19.878799 9.375124 0.0015239716
19.898811 9.4132996 -0.0042285919
19.906158 9.4474564 -0.00057792664
19.922058 9.4835606 -0.0041437149
19.931465 9.5181189 -0.0012712479
19.953663 9.5560713 -0.0090665817
19.962008 9.5902691 -0.0053339005
19.96418 9.6219921 0.0013685226
19.984259 9.6592216 -0.0047016144
19.998037 9.6946011 -0.0065412521
20.010624 9.7302456 -0.0062589645
20.01598 9.7630539 -0.0021448135
20.02021 9.7951794 0.0037755966
20.042475 9.8321857 -0.0043354034
20.048824 9.8650351 -0.00013923645
20.069901 9.9023046 -0.0061264038
20.079433 9.9362392 -0.0045175552
20.083729 9.9686852 0.00045776367
20.098568 10.00316 -0.0016183853
20.111284 10.038179 -0.0025959015
20.129307 10.073739 -0.0072574615
20.127235 10.104015 0.0028924942
20.146189 10.140562 -0.00137043
20.157974 10.174595 -0.0027475357
20.174934 10.209793 -0.0065469742
20.18659 10.243183 -0.0060358047
20.197186 10.277477 -0.0052890778
20.198362 10.307894 0.0019569397
20.220627 10.3449 -0.006155014
20.219616 10.374271 0.0037612915
20.241817 10.410956 -0.003405571
20.251415 10.443945 -0.0021133423
20.260082 10.475945 -0.0012216568
20.273861 10.510058 -0.0024347305
20.276035 10.541782 0.0042657852
20.274029 10.571113 0.014098167
20.277262 10.601931 0.020565033
