# .PCD v0.7 - Point Cloud Data file format
VERSION 0.7
FIELDS x y z
SIZE 4 4 4
TYPE F F F
COUNT 1 1 1
WIDTH 1474
HEIGHT 1
VIEWPOINT 0 0 0 1 0 0 0
POINTS 1474
DATA ascii
17.570108 -0.36880219 -0.037318155
17.589275 -0.30593848 -0.035592705
17.607458 -0.24183607 -0.034573507
17.626568 -0.17802453 -0.032529552
17.649899 -0.11059463 -0.034235802
17.668009 -0.046814561 -0.032274328
17.689304 0.016751289 -0.032272287
17.71056 0.082531214 -0.032576486
17.73489 0.14998877 -0.034201216
17.756197 0.21482491 -0.034823902
17.773403 0.27541637 -0.032960027
17.783354 0.32849705 -0.02571727
17.814924 0.40219736 -0.032098051
17.833147 0.46408558 -0.030774526
17.856583 0.52962387 -0.033122536
17.867548 0.58400226 -0.026422035
17.887949 0.64564705 -0.027142325
17.912397 0.71248209 -0.030031638
17.942991 0.78267038 -0.035565838
17.943766 0.82850617 -0.024054289
17.959 0.88555717 -0.021427255
17.903921 0.88310069 0.026709689
17.847839 0.88061464 0.074761279
17.831985 0.91199481 0.098127373
17.83375 0.95785832 0.10972045
17.83552 1.0037208 0.12131446
17.842449 1.0541791 0.12955736
17.841127 1.0970968 0.14309666
17.834642 1.1354218 0.15998422
17.838436 1.1838789 0.17049374
17.839243 1.2274997 0.18230769
17.828621 1.2637942 0.2013794
17.832518 1.3103616 0.21125098
17.83428 1.3562262 0.2228431
17.830818 1.3971707 0.23872958
17.830614 1.4394946 0.25108579
17.835526 1.4873589 0.26041317
17.836275 1.5319237 0.27254948
17.828794 1.5702209 0.28935552
17.833708 1.6180844 0.29868293
17.82312 1.6521657 0.31805992
17.834242 1.7037048 0.32380015
17.832922 1.7466226 0.33733657
17.830658 1.7885667 0.35047394
17.832478 1.8334844 0.36174849
17.828121 1.8725104 0.3769117
17.833014 1.9191058 0.38686386
17.83382 1.9627256 0.39867783
17.834646 2.0076146 0.40987086
17.828211 2.0449929 0.42643803
17.823908 2.0830731 0.44128084
17.826796 2.1283426 0.45169368
17.815159 2.163342 0.47130767
18.449297 2.8590879 0.11350132
18.420023 2.8783329 0.14551114
18.319372 2.843739 0.22171405
18.721949 3.2285545 -0.020972744
18.742672 3.2845261 -0.023614496
18.764391 3.3405235 -0.026173783
18.779945 3.3918996 -0.025466308
18.798576 3.4449532 -0.026080323
18.815142 3.497627 -0.025913198
18.83585 3.5523286 -0.027931176
18.847248 3.6004069 -0.024414824
18.858637 3.6472168 -0.020276602
18.880474 3.7025928 -0.024099514
18.901251 3.757617 -0.027061675
18.908554 3.8014536 -0.021057798
18.923025 3.8512089 -0.01886484
18.942722 3.9046128 -0.02033961
18.964615 3.9590433 -0.024483878
18.978146 4.0078244 -0.022690941
18.98016 4.0476894 -0.012074203
19.018717 4.1143618 -0.027768672
19.033245 4.1631713 -0.025894213
19.041666 4.2064142 -0.021073395
19.056265 4.2555466 -0.020144071
19.081228 4.3116531 -0.025607923
19.093748 4.3591375 -0.023274632
19.110527 4.4080272 -0.024389122
19.131271 4.4605131 -0.026102778
19.14278 4.5067015 -0.023226272
19.158495 4.5552387 -0.023479059
19.171068 4.6017785 -0.02146617
19.186785 4.6503162 -0.021717047
19.204508 4.7001801 -0.02242866
19.21921 4.7474222 -0.022138232
19.22756 4.7903404 -0.016373238
19.247427 4.8421745 -0.019432044
19.264263 4.8901196 -0.020867888
19.285181 4.9410357 -0.024164625
19.298748 4.9876032 -0.022068309
19.316593 5.0368452 -0.024045456
19.327089 5.0817347 -0.020627655
19.339697 5.1260581 -0.018309487
19.357548 5.1752987 -0.020284733
19.37438 5.2232428 -0.021719627
19.388073 5.2691865 -0.020886943
19.40904 5.319159 -0.02450503
19.415367 5.3594828 -0.017655525
19.424976 5.4024529 -0.014959095
19.453241 5.4577217 -0.02365078
19.459637 5.4983683 -0.017745456
19.470171 5.5410428 -0.014024281
19.492331 5.590744 -0.019767705
19.499737 5.632688 -0.014404636
19.516556 5.6793633 -0.015214797
19.532431 5.7250638 -0.016425932
19.5534 5.7750354 -0.020044977
19.567196 5.8190861 -0.019852148
19.577854 5.8611398 -0.017395554
19.587326 5.9034634 -0.012811719
19.606339 5.9511638 -0.01629043
19.627415 5.9992437 -0.020546466
19.633919 6.0379996 -0.01528099
19.652864 6.0853763 -0.017816477
19.668737 6.1310778 -0.019027606
19.678261 6.1724544 -0.014765132
19.691048 6.2152095 -0.014030998
19.700829 6.2566118 -0.012919553
19.719776 6.3039889 -0.015453132
19.728355 6.3443928 -0.011591621
19.752625 6.3935261 -0.018436594
19.770563 6.4396057 -0.020426959
19.772913 6.4750643 -0.012354515
19.796188 6.5241704 -0.01928005
19.792198 6.5565748 -0.0063558593
19.822754 6.6097088 -0.017729308
19.827181 6.6468153 -0.011061782
19.842079 6.6890035 -0.011427285
19.865284 6.7377868 -0.017408639
19.875051 6.7779183 -0.015674377
19.888834 6.8207016 -0.014858724
19.89012 6.8558083 -0.0059226668
19.921844 6.9074016 -0.018800536
19.92107 6.9421282 -0.0090842927
19.943316 6.988668 -0.014844749
19.956156 7.0304775 -0.014431017
19.96999 7.0723143 -0.013936722
19.982882 7.1131768 -0.01384149
19.996716 7.155014 -0.013346242
20.008545 7.1955271 -0.012390252
20.021435 7.2363896 -0.012295973
20.038464 7.2792811 -0.014386796
20.038738 7.3130903 -0.0049094362
20.061054 7.3599534 -0.011613118
20.080212 7.4035463 -0.015428308
20.104658 7.4511118 -0.023855405
20.099644 7.4809499 -0.0097651854
20.124144 7.5275688 -0.018511731
20.13389 7.566433 -0.016152734
20.145704 7.6056747 -0.014573928
20.165943 7.6508889 -0.019872693
20.171541 7.6864562 -0.014705773
20.178085 7.7229962 -0.0091369282
20.18895 7.7612638 -0.0079609975
20.208107 7.8048582 -0.011773324
20.226326 7.8474774 -0.015990442
20.235064 7.8850436 -0.013087282
20.250069 7.9253402 -0.014093592
20.260883 7.9645548 -0.012596302
20.266481 8.0001202 -0.0074293837
20.281488 8.0404186 -0.0084366444
20.302898 8.0840912 -0.015236975
20.319036 8.1250629 -0.018050121
20.324566 8.160305 -0.011939023
20.3417 8.2013054 -0.014668744
20.3547 8.2402754 -0.015215276
20.369825 8.2799492 -0.01748617
20.379631 8.3178673 -0.015446622
20.378946 8.3494339 -0.0057483623
20.383478 8.3846493 0.00028217398
20.385866 8.4178925 0.00865799
20.389442 8.4508648 0.014909429
20.382366 8.4803238 0.029778881
20.386951 8.5145931 0.035488062
20.382008 8.544754 0.048635051
20.380259 8.5759697 0.059195973
20.377565 8.6062107 0.069354966
20.382029 8.6411037 0.076327778
20.376143 8.6702919 0.089070953
20.379599 8.703886 0.096586965
20.385248 8.7385063 0.10143348
20.385626 8.7704239 0.11027003
20.380684 8.8005867 0.12341607
20.386265 8.8348837 0.12920678
17.465557 -0.47937703 -0.034027103
17.493933 -0.40673208 -0.037820868
17.516253 -0.34059799 -0.038985804
17.52503 -0.28597784 -0.030241493
17.542135 -0.22349381 -0.027738716
17.569567 -0.15182233 -0.031932488
17.592831 -0.08471477 -0.032695509
17.618223 -0.016907215 -0.035182904
17.638464 0.047577024 -0.034943886
17.658642 0.11173868 -0.033760689
17.679949 0.1765728 -0.034384333
17.700178 0.2397877 -0.033522494
17.716307 0.29875886 -0.030173134
17.747873 0.37245917 -0.036550105
17.760929 0.42975473 -0.0318783
17.78229 0.49364305 -0.032822348
17.802588 0.55718124 -0.032902781
17.814671 0.610964 -0.027385347
17.838104 0.67650223 -0.029732401
17.862539 0.74206632 -0.031997945
17.885908 0.80728209 -0.033400819
17.901079 0.86401063 -0.029829603
17.872952 0.8851983 -0.00024755672
17.829212 0.89322615 0.040644854
17.833055 0.94073951 0.050833963
17.834826 0.98660302 0.06242799
17.838665 1.0341145 0.072617084
17.83218 1.0724385 0.089506559
17.845289 1.1287892 0.093857966
17.833637 1.1625175 0.11409573
17.830257 1.2050564 0.1284152
17.839233 1.2546242 0.13650262
17.840057 1.2995142 0.14769283
17.835594 1.3404319 0.16349778
17.829176 1.3790784 0.17944308
17.834019 1.4266194 0.1897137
17.82659 1.4639698 0.20619935
17.832495 1.5118611 0.21561016
17.829098 1.5531307 0.23055151
17.837091 1.6039401 0.2379327
17.831673 1.6426141 0.25395855
17.839773 1.6915318 0.26069987
17.828138 1.7265302 0.28031671
17.830957 1.7714756 0.2916728
17.824539 1.8101239 0.3076143
17.82629 1.8547173 0.31983399
17.833448 1.9026613 0.32617339
17.826895 1.9406629 0.34400418
17.827774 1.9846051 0.35487589
17.827517 2.0278749 0.36755157
17.826246 2.0698469 0.38077235
17.830198 2.1154666 0.39031968
17.826853 2.1557906 0.4049435
17.831869 2.2017624 0.41363105
17.835751 2.2470598 0.42412353
17.809633 2.269573 0.45324484
17.826038 2.3250842 0.45436937
18.352774 2.8103549 0.13218845
18.386898 2.8771889 0.12152485
18.348389 2.8901348 0.15812576
18.33791 2.9223256 0.17686099
18.711515 3.2436306 -0.057888575
18.67507 3.2569566 -0.022068802
18.695717 3.312604 -0.023766376
18.71335 3.3656278 -0.024461914
18.735121 3.4206803 -0.027341601
18.749613 3.4717054 -0.025771465
18.775536 3.5300546 -0.031459078
18.786886 3.5790806 -0.027624225
18.801359 3.6288369 -0.025429361
18.8076 3.6723213 -0.018563781
18.83045 3.7289939 -0.022929903
18.853287 3.7843976 -0.026670344
18.865683 3.8325045 -0.02307247
18.881428 3.8835814 -0.024572805
18.904316 3.9380393 -0.0286346
18.919872 3.9894152 -0.027926173
18.932322 4.0365772 -0.0246487
18.952139 4.0893583 -0.027388055
18.966667 4.1381683 -0.025514547
18.97296 4.180706 -0.018969372
19.002077 4.2401094 -0.027242102
19.011456 4.285594 -0.02264219
19.028116 4.3351083 -0.022492092
19.042765 4.3832951 -0.021881264
19.053261 4.4281855 -0.018465366
19.073006 4.4806433 -0.020260539
19.09181 4.5321274 -0.022457633
19.104385 4.5786667 -0.020443793
19.127378 4.6312327 -0.025147351
19.13674 4.675447 -0.019921757
19.152458 4.7239857 -0.020174541
19.176462 4.7778497 -0.02541749
19.191111 4.8260365 -0.024807615
19.192291 4.8630362 -0.015233607
19.223644 4.9212494 -0.025870562
19.235085 4.9671135 -0.022050835
19.251917 5.0150585 -0.023483817
19.265488 5.0616245 -0.021388458
19.236507 5.0786777 0.0077746343
19.293936 5.1538644 -0.020587659
19.308569 5.2007818 -0.019353053
19.33062 5.2523737 -0.024456628
19.332743 5.2903471 -0.014480698
19.357988 5.3429928 -0.022169389
19.374752 5.3906136 -0.022658195
19.378075 5.4295845 -0.015432332
19.404263 5.4832039 -0.022719102
19.413734 5.525528 -0.018137176
19.424391 5.5675802 -0.01567772
19.452709 5.6219034 -0.024690762
19.45804 5.6621981 -0.01792278
19.462292 5.7008743 -0.0096693076
19.496962 5.7595196 -0.024155963
19.502399 5.7979236 -0.018028785
19.526564 5.848948 -0.024231996
19.541372 5.894299 -0.024582373
19.552973 5.9373255 -0.021722902
19.565704 5.9810262 -0.020668369
19.5805 6.0251064 -0.020394973
19.588013 6.0651593 -0.015672708
19.601761 6.1101565 -0.015160432
19.622833 6.1582365 -0.019417422
19.636633 6.2022877 -0.019226499
19.649405 6.2437749 -0.01786859
19.659992 6.2855043 -0.014466861
19.683212 6.3355551 -0.021073902
19.690725 6.375608 -0.016348779
19.710791 6.4223895 -0.020064468
19.717348 6.4601994 -0.015119399
19.739489 6.5086312 -0.020240001
19.745993 6.5473866 -0.014973575
19.762983 6.5924931 -0.017367769
19.776833 6.6355982 -0.017496299
19.784332 6.6743827 -0.012148352
19.802376 6.7185707 -0.014781434
19.820377 6.7649741 -0.017717887
19.832151 6.8064313 -0.016441498
19.851204 6.8519163 -0.019614927
19.86516 6.8931313 -0.02038331
19.870583 6.9302673 -0.013633303
19.880283 6.9700751 -0.010953909
19.900537 7.0165586 -0.016877403
19.913309 7.058044 -0.015519497
19.92721 7.1002054 -0.015967468
19.935894 7.1387162 -0.012744863
19.955002 7.1832561 -0.016239651
19.958418 7.2190666 -0.0090289116
19.977575 7.26266 -0.012843149
19.993555 7.3064685 -0.014695088
20.008507 7.3477106 -0.015381949
20.017195 7.3862224 -0.012159343
20.034224 7.4291139 -0.014249211
20.046104 7.4686794 -0.013614584
20.062069 7.5112205 -0.014842745
20.081295 7.5551362 -0.019599255
20.091047 7.5939994 -0.017241213
20.098669 7.6321602 -0.013157853
20.108471 7.6700783 -0.011118305
20.118155 7.7086172 -0.0078151319
20.139442 7.7529144 -0.013353735
20.150257 7.7921286 -0.011855493
20.162136 7.8316951 -0.011220863
20.171925 7.8683424 -0.0085565895
20.194344 7.9133139 -0.015901078
20.211428 7.9552584 -0.018309448
20.219103 7.9924736 -0.014547439
20.226776 8.0296879 -0.010783527
20.243961 8.0697422 -0.013833655
20.247366 8.1042824 -0.0059991432
20.271917 8.1499557 -0.015066092
20.284845 8.1886024 -0.01466844
20.296791 8.2284927 -0.014977035
20.306566 8.2638721 -0.011688985
20.320576 8.3041391 -0.012778725
20.337778 8.3454628 -0.016451674
20.347582 8.383379 -0.014412128
20.352102 8.417326 -0.0077597238
20.365154 8.4553509 -0.0086257039
20.381289 8.4963217 -0.01143885
20.385876 8.530591 -0.0057287235
20.386187 8.5621872 0.0040510613
20.391785 8.5977516 0.0092179831
20.378483 8.6222658 0.02830028
20.389353 8.6605349 0.029477166
20.377062 8.6863461 0.048017204
20.374245 8.7172098 0.059440784
20.384102 8.7541809 0.06115897
20.380274 8.7837486 0.073122904
20.38172 8.8160191 0.081098713
20.384176 8.8495846 0.088531293
20.37822 8.8784504 0.10221959
20.387014 8.9150696 0.10480139
20.378981 8.9422855 0.11989365
20.376165 8.9731503 0.13131629
17.403465 -0.50548983 -0.039000608
17.417427 -0.44500566 -0.034229305
17.443762 -0.37622249 -0.03631286
17.47114 -0.30360508 -0.040188137
17.480988 -0.24863279 -0.032307439
17.512503 -0.17398596 -0.038365908
17.521353 -0.11904132 -0.030565774
17.547758 -0.049935818 -0.03359447
17.560759 0.0083045959 -0.028602261
17.59234 0.083274007 -0.03560682
17.607336 0.14157176 -0.030448711
17.630671 0.20900154 -0.032154962
17.649954 0.27124012 -0.031695053
17.668158 0.33186221 -0.029749647
17.692486 0.39931977 -0.031374376
17.714861 0.46450496 -0.032859731
17.748556 0.53890729 -0.040962972
17.752401 0.58642066 -0.03077291
17.760275 0.63785142 -0.022127148
17.794044 0.71257704 -0.031174574
17.814322 0.7748462 -0.030631229
17.832653 0.83484477 -0.029948507
17.84267 0.88824689 -0.023650886
17.836185 0.92657089 -0.0067623667
17.843134 0.97829825 0.00085674413
17.835581 1.0162702 0.018608877
17.837332 1.0608655 0.030824775
17.836084 1.1041075 0.043419875
17.837847 1.1499701 0.055012949
17.841637 1.1984274 0.065521501
17.84037 1.2404002 0.078741342
17.839033 1.2820487 0.092903458
17.834637 1.3232899 0.10776328
17.837471 1.3695054 0.11849559
17.83308 1.4107474 0.13335639
17.839994 1.4599354 0.142224
17.8284 1.4927199 0.16214134
17.839533 1.5455282 0.16725782
17.824745 1.5772574 0.18976122
17.832739 1.6280668 0.19714241
17.822155 1.662148 0.21651846
17.830204 1.7120115 0.22358114
17.828936 1.7539834 0.23679908
17.829763 1.7988733 0.24799021
17.832645 1.8441411 0.25840211
17.834398 1.8887364 0.27061895
17.833179 1.9297626 0.28351745
17.838144 1.9766792 0.29252636
17.827507 2.0117064 0.31221995
17.834541 2.0602739 0.31982392
17.830256 2.0996222 0.3340458
17.833193 2.1439452 0.3441354
17.828783 2.1839182 0.35962093
17.829592 2.2275381 0.37143582
17.830385 2.2698905 0.38387454
17.830196 2.3134837 0.39560699
17.813437 2.3416724 0.4188745
17.837139 2.4024796 0.41492832
17.828627 2.4382098 0.43290037
18.339882 2.8676736 0.11061684
18.308653 2.8846474 0.14276794
18.324156 2.936969 0.14379583
18.336462 2.9882369 0.14740977
18.62289 3.2428455 -0.029627573
18.635235 3.291899 -0.025709294
18.645569 3.3396273 -0.021332184
18.669437 3.3975968 -0.026239613
18.69014 3.4522982 -0.02825759
18.700474 3.5000257 -0.02387953
18.719105 3.5530782 -0.024492593
18.742899 3.6107256 -0.028455839
18.754354 3.65786 -0.025261791
18.771975 3.7096136 -0.025332604
18.793808 3.7649899 -0.029155515
18.799994 3.8094211 -0.021971434
18.821764 3.8644745 -0.024851117
18.837427 3.9139578 -0.024782546
18.848816 3.9607692 -0.020643367
18.864355 4.0108757 -0.019311164
18.882042 4.0629539 -0.020326151
18.901785 4.1154118 -0.022123231
18.922667 4.1685457 -0.025724284
18.929901 4.2120581 -0.018776232
18.950777 4.2651906 -0.022378244
18.968452 4.3160005 -0.022769453
18.981022 4.3625393 -0.020755613
18.99461 4.4103746 -0.019284986
19.012207 4.4608612 -0.018732011
19.03208 4.5126967 -0.021791771
19.047672 4.5618577 -0.020780925
19.05508 4.6038027 -0.015415945
19.084305 4.661314 -0.024330441
19.105185 4.714447 -0.027931497
19.106241 4.7520685 -0.01709291
19.132391 4.8079042 -0.024684001
19.13872 4.8482275 -0.017834498
19.154436 4.8967667 -0.018086325
19.17437 4.9489241 -0.022090266
19.197363 5.0014901 -0.026791913
19.206779 5.0447607 -0.021888625
19.180944 5.0638127 0.0050087962
19.120432 5.0614915 0.058093168
19.046415 5.0501971 0.1198383
18.986038 5.048522 0.17103432
19.253181 5.2601585 -0.00092420354
19.301289 5.3274541 -0.023128387
19.303549 5.3660736 -0.015038909
19.32452 5.4160452 -0.018656999
19.33399 5.4583688 -0.014074119
19.364401 5.5156097 -0.025112992
19.368773 5.5536613 -0.018124107
19.392818 5.6053109 -0.023063686
19.405497 5.6499567 -0.021689702
19.420307 5.6953068 -0.02204008
19.429775 5.7376299 -0.017455293
19.45715 5.7909784 -0.026869304
19.462467 5.8300056 -0.019478494
19.475199 5.8737068 -0.01842491
19.496223 5.9227314 -0.022362454
19.513107 5.9697304 -0.02411584
19.520605 6.008513 -0.018768847
19.529135 6.0498633 -0.01458789
19.549213 6.0979147 -0.018928308
19.569225 6.1456432 -0.02232359
19.578817 6.1873446 -0.019003384
19.589458 6.2281275 -0.015923018
19.602123 6.2715054 -0.013925253
19.625397 6.320611 -0.020849835
19.631844 6.3603125 -0.015265867
19.650843 6.406744 -0.018118892
19.666758 6.4502301 -0.019026652
19.681618 6.4946327 -0.019696482
19.690201 6.5350366 -0.015834974
19.71133 6.5821705 -0.020413321
19.714693 6.618926 -0.012883134
19.7328 6.6634378 -0.016458485
19.740248 6.7031674 -0.010791089
19.758291 6.747355 -0.013424173
19.77528 6.7924614 -0.015816461
19.785986 6.8335676 -0.013679317
19.799826 6.8754053 -0.01318407
19.818998 6.9202676 -0.01762113
19.822361 6.9570227 -0.010090942
19.843546 7.003211 -0.014989695
19.857378 7.0450487 -0.014492534
19.864998 7.0832086 -0.010409173
19.888309 7.1300993 -0.017030383
19.900085 7.1715569 -0.015755901
19.910849 7.2117181 -0.013938207
19.927927 7.2536621 -0.016349439
19.94911 7.2998514 -0.021246277
19.965076 7.3423905 -0.022474445
19.969555 7.3785515 -0.016125411
19.98138 7.4190636 -0.015169424
19.997398 7.4606576 -0.016717039
20.004009 7.4975214 -0.012093327
20.019974 7.5400605 -0.013320537
20.040268 7.5843282 -0.018940665
20.043682 7.6201377 -0.011729925
20.061829 7.6624331 -0.015001906
20.073641 7.7016768 -0.013422141
20.08552 7.7412429 -0.012787513
20.099478 7.7824569 -0.013553989
20.115494 7.8240509 -0.015102555
20.115822 7.856916 -0.0059465487
20.140303 7.9022655 -0.014069317
20.150053 7.9411287 -0.011710325
20.167189 7.9821267 -0.014441003
20.176941 8.0209904 -0.012081055
20.181526 8.0552597 -0.0063718753
20.206007 8.1006098 -0.014494644
20.214676 8.1378536 -0.010650166
20.227676 8.1768246 -0.011196693
20.242682 8.2171211 -0.012203004
20.25041 8.2533903 -0.0087594967
20.272816 8.2970905 -0.015479259
20.282671 8.3340626 -0.013759162
20.297747 8.3746824 -0.015709653
20.310745 8.4136534 -0.016256182
20.317457 8.4486256 -0.012271369
20.330454 8.4875965 -0.012816941
20.346529 8.528244 -0.014685916
20.359579 8.5662689 -0.015551893
20.366173 8.6018639 -0.010302499
20.377092 8.6391869 -0.0094460147
20.383808 8.6741581 -0.0054602511
20.383125 8.7057257 0.0042380113
20.380312 8.7365894 0.015660638
20.380568 8.7691307 0.025760824
20.386271 8.8028049 0.030287893
20.382393 8.8333187 0.042572223
20.364899 8.8567505 0.064158119
20.385229 8.8988028 0.058842324
20.385609 8.9307213 0.067678884
20.380718 8.9599371 0.080506422
20.382164 8.9922066 0.088480316
20.377218 9.0223675 0.10162731
20.381859 9.0556927 0.10701513
20.386377 9.0896378 0.11366849
20.376282 9.1164742 0.12953904
17.349081 -0.47258186 -0.035917118
17.363152 -0.4139874 -0.031785659
17.394613 -0.33839452 -0.037525631
17.40447 -0.28215396 -0.030264895
17.432903 -0.2104547 -0.034380015
17.459198 -0.13945568 -0.0367698
17.482517 -0.073297858 -0.03785133
17.496582 -0.014703512 -0.033721775
17.521923 0.054051876 -0.035889715
17.542097 0.11821163 -0.034707475
17.56543 0.1856395 -0.036413729
17.583635 0.2462616 -0.034466416
17.604931 0.30982757 -0.034467243
17.622015 0.37104154 -0.031339735
17.643375 0.43492985 -0.032281876
17.651199 0.48730826 -0.023315709
17.676765 0.55354965 -0.027388081
17.702154 0.62135834 -0.029873563
17.7276 0.6882211 -0.032682311
17.743784 0.74624652 -0.029651448
17.757959 0.80294728 -0.026160801
17.789633 0.87475401 -0.033179536
17.799652 0.92815804 -0.026881911
17.829304 0.99737376 -0.032817077
17.836235 1.0478301 -0.024572287
17.830814 1.0865051 -0.0085454751
17.839823 1.1386102 -0.0017065536
17.837435 1.1811779 0.012694446
17.836113 1.2240965 0.026232785
17.834793 1.2670143 0.039771117
17.835602 1.3106351 0.051586039
17.828053 1.3486069 0.069337219
17.83296 1.3964704 0.078664623
17.829565 1.4377402 0.093607873
17.831387 1.4826579 0.1048815
17.82703 1.5216849 0.12004373
17.825706 1.5646017 0.13358304
17.829689 1.6127617 0.1418857
17.831509 1.6576796 0.1531574
17.831251 1.7009482 0.16583593
17.830978 1.7429478 0.17913634
17.823549 1.7802984 0.195622
17.832544 1.8311353 0.20308563
17.826126 1.8697827 0.21903095
17.829008 1.9150524 0.22943999
17.830868 1.957754 0.24101795
17.826529 1.9980493 0.25556019
17.831421 2.0446455 0.26550949
17.82708 2.08494 0.28005177
17.832041 2.1318564 0.28905874
17.830826 2.1728835 0.30195725
17.830622 2.2152076 0.31431442
17.820034 2.2492878 0.33369046
17.828072 2.2978811 0.34137693
17.835178 2.34677 0.34803578
17.825655 2.3812034 0.36654916
17.82029 2.4189317 0.38225558
17.826246 2.4658771 0.39134502
18.271133 2.844182 0.11241654
18.26791 2.8838835 0.12577577
18.222149 2.8893175 0.16775365
17.831837 2.6385474 0.43497878
18.554018 3.2199769 -0.026564237
18.563278 3.2660849 -0.020700693
18.579844 3.318758 -0.020534523
18.599487 3.3731084 -0.021689842
18.617121 3.4261322 -0.022386333
18.639847 3.4834275 -0.025487872
18.657463 3.5351844 -0.025557719
18.670877 3.584589 -0.022503059
18.688559 3.6366673 -0.023518998
18.707191 3.6897197 -0.024132062
18.718592 3.7377999 -0.02061666
18.747652 3.7981486 -0.02856994
18.760122 3.8465788 -0.025915295
18.778805 3.8986864 -0.026849713
18.785042 3.9421709 -0.019985083
18.808939 3.9979258 -0.024588183
18.824482 4.0480328 -0.023255028
18.848396 4.1050563 -0.028482858
18.852594 4.1446791 -0.019909935
18.862989 4.1914616 -0.015853232
18.882805 4.2442427 -0.018591631
18.89632 4.2917557 -0.016175864
18.923414 4.3485632 -0.023365995
18.930649 4.3920774 -0.016419843
18.951529 4.4452095 -0.020019948
18.967243 4.4937487 -0.020272732
18.993269 4.5502062 -0.026599243
18.990191 4.5858002 -0.013575552
19.01313 4.6393113 -0.017958706
19.035059 4.6915264 -0.021797694
19.051786 4.7413621 -0.022591781
19.062216 4.7859297 -0.018230751
19.081059 4.8351984 -0.020124475
19.103123 4.8880596 -0.025851823
19.111546 4.9313011 -0.021031011
19.134483 4.9848132 -0.0254113
19.146046 5.030055 -0.022855205
19.129444 5.0554066 -0.00054888986
19.079491 5.0597582 0.043933541
19.013828 5.054111 0.099742413
18.956526 5.0541134 0.1496179
18.914862 5.0637903 0.1891073
18.889917 5.0847626 0.21672609
18.806488 5.0687375 0.28464442
18.732414 5.0583897 0.34671092
19.27734 5.4466372 -0.016905399
19.297245 5.4962573 -0.019660827
19.302631 5.5356073 -0.013213245
19.324665 5.5859308 -0.017693039
19.335199 5.6286054 -0.013970912
19.355173 5.6785483 -0.017670523
19.373123 5.7258973 -0.020287525
19.383711 5.7676272 -0.016886752
19.397388 5.8123021 -0.015430292
19.419491 5.8629484 -0.020853316
19.43322 5.9066768 -0.019718213
19.450104 5.9536748 -0.021471601
19.460695 5.9954047 -0.018071782
19.462868 6.0324316 -0.0084143514
19.492371 6.086483 -0.019550821
19.504026 6.1285639 -0.017011758
19.519899 6.1742644 -0.018224794
19.535826 6.219018 -0.019754428
19.549553 6.2627468 -0.018620279
19.560143 6.3044767 -0.015217599
19.578146 6.3508811 -0.018154049
19.5898 6.3929601 -0.015614035
19.589008 6.4264193 -0.0052749636
19.615355 6.477201 -0.013522943
19.630148 6.5212812 -0.013249548
19.648205 6.5667391 -0.016506404
19.665129 6.6115217 -0.017954515
19.667496 6.6482491 -0.010505844
19.687613 6.6940866 -0.014542889
19.701395 6.7368679 -0.01372724
19.724655 6.7847052 -0.020028047
19.725887 6.8207583 -0.01077349
19.746056 6.8656483 -0.015128076
19.759905 6.9087548 -0.015257557
19.776882 6.9525919 -0.017027024
19.788588 6.9937272 -0.014807405
19.797222 7.033185 -0.011267258
19.806973 7.0720482 -0.0089073069
19.821939 7.1145601 -0.01021699
19.841043 7.1590996 -0.013711777
19.865368 7.2072864 -0.020875243
19.868835 7.2421513 -0.013984908
19.881607 7.2836361 -0.012626047
19.896574 7.326148 -0.013935729
19.910532 7.367362 -0.014705066
19.921225 7.4071999 -0.011943191
19.94145 7.4511447 -0.01662009
19.95113 7.4896851 -0.013316913
19.968231 7.5328989 -0.016350012
19.97271 7.5690603 -0.01000098
19.988726 7.6106539 -0.011549546
19.997465 7.6482196 -0.0086473422
20.02397 7.6961646 -0.017855579
20.029514 7.7326765 -0.01236825
20.042393 7.7722707 -0.011650199
20.051147 7.8111057 -0.0093717687
20.066221 7.8517256 -0.011324165
20.083233 7.8933477 -0.012789305
20.097242 7.9336157 -0.013878091
20.109123 7.9731817 -0.013242509
20.128338 8.0158291 -0.017375244
20.134998 8.0517473 -0.013070026
20.150003 8.0920439 -0.014077291
20.161882 8.1316099 -0.013441709
20.18115 8.1733112 -0.017894849
20.184616 8.2081747 -0.011003559
20.194475 8.2451458 -0.0092853699
20.20948 8.2854424 -0.010290729
20.219212 8.3230381 -0.0073079523
20.239613 8.3654137 -0.01356698
20.25462 8.4057102 -0.014574244
20.259207 8.4399796 -0.0088650668
20.270058 8.4769793 -0.007064403
20.292463 8.5206804 -0.013784165
20.310734 8.5623531 -0.018319778
20.319523 8.5989742 -0.015738927
20.329365 8.634676 -0.013395056
20.339155 8.6713247 -0.010731734
20.352152 8.7102966 -0.011278262
20.372534 8.7514038 -0.016914463
20.376122 8.7856445 -0.011286801
20.385895 8.821023 -0.0079997052
20.377878 8.8495083 0.0064687803
20.389866 8.8871822 0.0064645093
20.387051 8.918046 0.017886179
20.383224 8.9476137 0.029851066
20.381474 8.9788294 0.040411986
20.377649 9.0083961 0.05237592
20.390633 9.0460987 0.052454114
20.381548 9.0742331 0.067783356
20.378735 9.1050968 0.079205029
20.3717 9.1323414 0.094379768
20.382622 9.1696644 0.095238157
20.374605 9.1981487 0.10970569
20.379175 9.2311497 0.11603864
20.366833 9.257906 0.13489814
20.376795 9.2929859 0.13597839
17.323599 -0.37173045 -0.041376617
17.344786 -0.30627286 -0.040737584
17.353565 -0.25165069 -0.031995174
17.374754 -0.18619311 -0.031354234
17.401173 -0.11581945 -0.035006709
17.419342 -0.052983403 -0.033364683
17.442602 0.014122248 -0.034127705
17.473106 0.087471366 -0.039644875
17.491259 0.14903736 -0.037377164
17.510475 0.21095526 -0.035972118
17.527632 0.27249253 -0.033787835
17.545767 0.33279133 -0.030900158
17.566065 0.39632761 -0.030980598
17.586294 0.45954251 -0.030116852
17.60664 0.52213395 -0.030518644
17.631088 0.58896995 -0.033406999
17.653393 0.65383184 -0.033948176
17.675753 0.71774983 -0.034809746
17.695076 0.77777517 -0.03404646
17.698862 0.82623351 -0.0235379
17.725441 0.89377165 -0.028149672
17.747801 0.95768768 -0.029010296
17.753719 1.0068491 -0.020226102
17.792675 1.0826843 -0.031693704
17.816095 1.1469524 -0.033416983
17.82926 1.2023553 -0.029385034
17.842405 1.2564901 -0.024729306
17.831783 1.2927864 -0.0056566345
17.834667 1.3380542 0.0047552753
17.829193 1.377676 0.02110059
17.836105 1.4268651 0.029968204
17.829691 1.4655124 0.045913503
17.830446 1.510079 0.058046915
17.827101 1.5504029 0.072670721
17.834074 1.5986452 0.081216976
17.842136 1.6497768 0.087655887
17.842945 1.6933976 0.099468894
17.837524 1.7320727 0.11549763
17.829016 1.767802 0.13346875
17.82567 1.8081249 0.1480916
17.832655 1.8576382 0.15601601
17.829309 1.8979613 0.17063884
17.829056 1.941231 0.18331356
17.828903 1.9826071 0.19535224
17.838018 2.0328207 0.20155227
17.826313 2.0674987 0.22210947
17.834417 2.1164165 0.22884983
17.827982 2.1537936 0.24541892
17.82778 2.1961164 0.25777608
17.831732 2.2417364 0.26732534
17.823288 2.2777889 0.28435418
17.835478 2.32968 0.28923273
17.820738 2.3604646 0.31141478
17.829906 2.4097331 0.31729439
17.8297 2.4520559 0.3296535
17.832571 2.4960556 0.34068632
17.823069 2.5317574 0.35857686
18.197371 2.8552837 0.1267565
18.194254 2.8930926 0.13947491
17.823627 2.6571875 0.39414686
17.823494 2.6998339 0.40555888
18.501043 3.2440779 -0.025335815
18.504032 3.287456 -0.015564705
18.53303 3.3474822 -0.02257476
18.556822 3.4051285 -0.026538009
18.567228 3.4531789 -0.023103176
18.583658 3.5052061 -0.021049598
18.606441 3.5615578 -0.024471536
18.61891 3.6099877 -0.021816889
18.642754 3.6666884 -0.026099585
18.653095 3.7144165 -0.021721525
18.675926 3.7698202 -0.025464825
18.69356 3.8228452 -0.026160361
18.706013 3.870007 -0.022881934
18.718479 3.9184372 -0.020229194
18.739239 3.972192 -0.022565672
18.762074 4.0275946 -0.026308022
18.77145 4.073081 -0.021708103
18.787098 4.1212955 -0.021016711
18.802637 4.1714034 -0.019684505
18.822384 4.2238612 -0.021479677
18.841137 4.2762914 -0.023356369
18.853706 4.3228302 -0.021342529
18.86824 4.3716402 -0.019469976
18.890114 4.4248009 -0.022989515
18.911991 4.4779611 -0.026509058
18.91828 4.5205002 -0.019964829
18.93185 4.5670667 -0.017868517
18.952662 4.6198769 -0.020525394
18.970453 4.670063 -0.022181187
18.977743 4.7126303 -0.01555449
18.993458 4.761169 -0.015806319
19.013308 4.8117352 -0.018243251
19.040453 4.8675985 -0.025749967
19.046799 4.9091911 -0.019526146
19.059305 4.9554071 -0.016569076
19.076151 5.0046206 -0.018626792
19.103407 5.0585909 -0.026775271
19.04818 5.0602412 0.021695292
18.985661 5.0565939 0.07523945
18.927343 5.0552979 0.12565528
18.858559 5.0489206 0.18310891
18.842968 5.0755701 0.20487393
18.797165 5.0832181 0.24654748
18.717892 5.0704908 0.31165883
18.67938 5.083437 0.34825978
18.561468 5.0457377 0.44015822
18.891323 5.2932391 0.22569802
18.931089 5.3561554 0.20880441
19.269407 5.6074138 -0.012230022
19.299801 5.6633854 -0.02264512
19.301991 5.7016802 -0.013611467
19.315722 5.74541 -0.012476363
19.331539 5.7920561 -0.013368046
19.354639 5.842731 -0.018709548
19.370514 5.8884315 -0.019921634
19.391537 5.9374561 -0.023859177
19.403189 5.979537 -0.021320108
19.418995 6.0249162 -0.021588013
19.426456 6.0659142 -0.016544394
19.439188 6.1096144 -0.015490813
19.45606 6.1553435 -0.016622335
19.4615 6.1937475 -0.010493249
19.482576 6.2418275 -0.014752144
19.507856 6.2922587 -0.022137465
19.512165 6.3299875 -0.014204402
19.524897 6.3736887 -0.013150819
19.548153 6.4215255 -0.019451622
19.549387 6.4575777 -0.010198023
19.57781 6.5100079 -0.019848062
19.587456 6.5507636 -0.016849209
19.592823 6.5888448 -0.0097788014
19.614004 6.6350331 -0.014676597
19.629932 6.6797872 -0.016207183
19.636368 6.7182198 -0.0099994391
19.661703 6.767705 -0.017704209
19.665134 6.8047829 -0.011116296
19.676895 6.8449717 -0.0092180343
19.705355 6.8951879 -0.018564697
19.711926 6.9342666 -0.014243403
19.721556 6.973753 -0.010620778
19.744812 7.0215888 -0.01692063
19.754494 7.0601292 -0.01361841
19.774612 7.1059656 -0.017654501
19.784378 7.1460991 -0.015919277
19.800344 7.1886382 -0.017146491
19.816307 7.2311773 -0.018375609
19.834419 7.2756896 -0.021950008
19.838827 7.3115268 -0.014658704
19.846449 7.3496876 -0.010575344
19.861416 7.392199 -0.011885026
19.882706 7.4364944 -0.017421724
19.889196 7.4739809 -0.011533432
19.909367 7.5188723 -0.01588897
19.929655 7.5631399 -0.021509092
19.926735 7.5958962 -0.0094466098
19.939613 7.6354909 -0.0087295063
19.959835 7.6794353 -0.013404498
19.975924 7.7213521 -0.015897246
19.987734 7.7605948 -0.014317484
19.994343 7.7974586 -0.0096928179
20.005157 7.8366733 -0.0081955288
20.021229 7.8773212 -0.010062593
20.037247 7.9189148 -0.011612116
20.049128 7.9584804 -0.010976533
20.068338 8.0011272 -0.015109267
20.073938 8.0366955 -0.0099423444
20.096222 8.0810184 -0.015398475
20.101887 8.116909 -0.011174778
20.11689 8.1572056 -0.012181088
20.132978 8.1991224 -0.014674791
20.145962 8.236824 -0.01459659
20.155766 8.2747412 -0.012557045
20.163439 8.3119564 -0.0087940861
20.182703 8.3536587 -0.013247222
20.194637 8.3922777 -0.012932045
20.20549 8.4292774 -0.011130429
20.22683 8.4726286 -0.01698848
20.233547 8.5075989 -0.013002719
20.244345 8.5455456 -0.010881652
20.257343 8.5845165 -0.01142818
20.276661 8.6252728 -0.016202677
20.28652 8.6622429 -0.01448258
20.287842 8.6951351 -0.0052431487
20.312431 8.7385941 -0.014007679
20.319094 8.7745113 -0.0097024627
20.329002 8.8105373 -0.0083037261
20.338858 8.8475094 -0.0065836282
20.358175 8.8882637 -0.011357171
20.373287 8.9266682 -0.013003336
20.383076 8.9633169 -0.010340967
20.390909 8.997694 -0.0075382665
20.377567 9.0244236 0.011240659
20.379013 9.0566921 0.019215507
20.378328 9.0882587 0.028912818
20.377577 9.119503 0.039556205
20.375881 9.1497726 0.049796723
20.37413 9.1809883 0.060357653
20.385103 9.2173653 0.060894676
20.386549 9.2496357 0.068869531
20.382668 9.2801476 0.081153862
20.382038 9.3107681 0.090532668
20.379274 9.3406868 0.1016349
20.373322 9.3695526 0.11532415
20.376844 9.40347 0.12189504
20.375147 9.4337387 0.13213556
17.317858 -0.20517373 -0.040923566
17.334003 -0.14493322 -0.038197033
17.347946 -0.085719228 -0.032800995
17.365034 -0.024503469 -0.029672533
17.39554 0.048845649 -0.035190657
17.420876 0.11759925 -0.037358597
17.428768 0.17030013 -0.029335657
17.458261 0.24235344 -0.034310564
17.478491 0.30556726 -0.033445869
17.499781 0.36913311 -0.033446688
17.518995 0.43105125 -0.032043546
17.535194 0.49034572 -0.029637411
17.555424 0.55355966 -0.028773669
17.578791 0.61877453 -0.030177496
17.60216 0.68398845 -0.031582281
17.615391 0.7397148 -0.028492605
17.635672 0.80198294 -0.027949264
17.665268 0.87214446 -0.033564977
17.689703 0.93770945 -0.03583052
17.691469 0.98357296 -0.024236495
17.727404 1.0567858 -0.034704916
17.748751 1.1194059 -0.035023279
17.756746 1.1702151 -0.027641146
17.779161 1.2331862 -0.028822169
17.797466 1.2919158 -0.027515667
17.822008 1.3555881 -0.030421063
17.835152 1.4097229 -0.025765333
17.834911 1.4542608 -0.013712481
17.828428 1.4925858 0.0031760391
17.82918 1.5371524 0.015310416
17.833063 1.5824498 0.025804805
17.828655 1.6224217 0.041288406
17.833632 1.6706076 0.049672581
17.830217 1.7106092 0.065239601
17.832108 1.7558492 0.07556808
17.833912 1.7994977 0.08746358
17.822329 1.8335505 0.10676
17.830374 1.8834149 0.11382174
17.829107 1.9253848 0.12704062
17.825697 1.9653863 0.14260577
17.837952 2.0176008 0.14654012
17.833666 2.0569503 0.16076007
17.833393 2.0989499 0.17406143
17.832129 2.1409228 0.18728128
17.835012 2.1861916 0.19769032
17.829645 2.2239215 0.2133977
17.836733 2.2715406 0.22068225
17.828241 2.3085389 0.23802958
17.826971 2.3505118 0.2512494
17.830976 2.3951857 0.26047826
17.82976 2.4362118 0.27337769
17.834707 2.4818592 0.28300849
17.834501 2.5241833 0.29536471
17.823984 2.558588 0.31379655
18.069611 2.7849836 0.16651917
18.132721 2.873306 0.13776898
17.858696 2.7100983 0.3279317
17.82321 2.7256656 0.36352867
18.430191 3.2164006 -0.020884596
18.450787 3.272994 -0.022260811
18.472561 3.3280466 -0.025140498
18.490122 3.3807483 -0.024893761
18.515991 3.4400434 -0.030260015
18.528355 3.4903653 -0.026966471
18.551138 3.5467157 -0.030388411
18.562523 3.5935266 -0.026249234
18.580156 3.6465507 -0.026943816
18.585327 3.6896842 -0.019217482
18.615387 3.7500615 -0.027087335
18.62887 3.7997892 -0.0249759
18.646486 3.8515441 -0.025047662
18.654732 3.8963561 -0.018641856
18.67971 3.9537311 -0.024732346
18.694185 4.0034866 -0.022537481
18.710863 4.0542684 -0.02301212
18.725372 4.1018085 -0.020514837
18.748276 4.157536 -0.025198501
18.755648 4.201695 -0.020138806
18.782549 4.2588038 -0.025121121
18.788977 4.3019891 -0.020463347
18.802496 4.3495021 -0.018047584
18.828522 4.4059601 -0.024374094
18.846195 4.456769 -0.024767213
18.853552 4.4996595 -0.019082787
18.872339 4.5498748 -0.020657059
18.892151 4.6026564 -0.023397364
18.908865 4.6512222 -0.023567677
18.91823 4.6954389 -0.018343983
18.946386 4.7525988 -0.026394863
18.951666 4.7938414 -0.019308377
18.976738 4.8480558 -0.025412085
18.990307 4.8946218 -0.023316726
18.993511 4.9342146 -0.014826284
19.022732 4.9917269 -0.023739822
19.023914 5.0287256 -0.014164862
19.028057 5.0692921 -0.005271541
18.965593 5.0647006 0.047953166
18.894796 5.0569978 0.10586562
18.830147 5.0526481 0.1611332
18.802113 5.0706758 0.19069822
18.757322 5.0796223 0.23182951
18.691626 5.07619 0.28733692
18.633257 5.0758405 0.33807313
18.523718 5.0450583 0.42341158
18.869194 5.3009667 0.19919097
18.862974 5.3345613 0.21447937
18.889175 5.3894501 0.20656882
18.90486 5.4354506 0.20756359
18.918549 5.4813943 0.20839533
18.92495 5.5220423 0.21430066
19.269642 5.774138 -0.01128214
19.293804 5.8251643 -0.017485347
19.31797 5.8761892 -0.023688558
19.327507 5.9188361 -0.020048901
19.328672 5.9545674 -0.0098511185
19.360252 6.0102663 -0.022391556
19.370789 6.0529404 -0.018669426
19.391861 6.1010208 -0.02292737
19.40032 6.1420474 -0.017803183
19.406826 6.1808023 -0.012536759
19.433104 6.2312613 -0.019841515
19.440565 6.2722592 -0.014797896
19.456491 6.3170147 -0.01632943
19.473364 6.3627434 -0.017459044
19.486147 6.4054985 -0.016724909
19.499929 6.4482818 -0.015909256
19.505369 6.4866858 -0.0097839851
19.530584 6.5367937 -0.016223218
19.5455 6.5802512 -0.017215358
19.563488 6.6253853 -0.01952613
19.571053 6.6644921 -0.015123317
19.593195 6.7129226 -0.020242969
19.601826 6.7523813 -0.016702812
19.614544 6.7948127 -0.0150245
19.622166 6.832973 -0.010941142
19.645359 6.8804865 -0.016298721
19.654003 6.9212132 -0.013381394
19.667772 6.962728 -0.011941009
19.690018 7.0092678 -0.017700512
19.701845 7.0497789 -0.016745478
19.709414 7.0888858 -0.012342669
19.728519 7.1334252 -0.0158365
19.732946 7.1705308 -0.0091670677
19.753117 7.2154226 -0.013522606
19.767019 7.2575831 -0.013972489
19.779776 7.2978001 -0.011989851
19.803085 7.3446908 -0.018612016
19.816988 7.3868499 -0.01905904
19.831942 7.4280934 -0.019746853
19.834345 7.462605 -0.011992905
19.854517 7.5074968 -0.016350353
19.861073 7.5453067 -0.011403374
19.879166 7.5885477 -0.014355907
19.888901 7.626142 -0.011373137
19.902857 7.6673565 -0.012139608
19.923147 7.7116246 -0.017759731
19.930634 7.7491388 -0.011788968
19.945709 7.7897587 -0.013739455
19.955511 7.8276763 -0.011698955
19.973606 7.8709188 -0.014651486
19.987545 7.9108634 -0.01479609
19.997297 7.9497266 -0.012437098
20.011238 7.9896722 -0.0125817
20.023241 8.028616 -0.013210702
20.031923 8.0671282 -0.0099890437
20.050125 8.1084785 -0.013580476
20.068272 8.150774 -0.016852457
20.064394 8.1812878 -0.004569076
20.079403 8.2215843 -0.0055753887
20.104948 8.2672863 -0.014558909
20.123148 8.3086357 -0.01815225
20.134016 8.3469028 -0.016974412
20.14274 8.3832016 -0.013449383
20.158932 8.4232273 -0.016581984
20.177078 8.4655228 -0.019853964
20.176392 8.4970894 -0.010153796
20.186197 8.5350075 -0.0081152031
20.201256 8.574358 -0.0094419178
20.216368 8.6127625 -0.011088083
20.229298 8.6514101 -0.010690431
20.243357 8.690733 -0.012099618
20.253218 8.727705 -0.010379524
20.271399 8.767786 -0.013348131
20.283388 8.80546 -0.013352402
20.289038 8.8400803 -0.0085058827
20.299889 8.877079 -0.006704269
20.312941 8.9151049 -0.0075702462
20.332258 8.9558611 -0.012344743
20.347372 8.9942665 -0.013990907
20.36669 9.0350218 -0.018764447
20.376596 9.0710468 -0.017364753
20.372719 9.1015596 -0.0050804205
20.383625 9.1376133 -0.0035992078
20.379799 9.167181 0.0083647203
20.378048 9.1983967 0.018924689
20.377363 9.2299633 0.028623907
20.384064 9.2636662 0.033233441
20.384443 9.2955837 0.042069048
20.374353 9.3224201 0.057941489
20.375797 9.3546896 0.065916345
20.370853 9.3848515 0.07906238
20.382824 9.4212561 0.079681881
20.382191 9.4518776 0.089061655
20.376305 9.4810658 0.10180482
20.385078 9.5164165 0.10501039
20.370728 9.5418472 0.12433062
20.37743 9.575551 0.12894017
20.373602 9.6051178 0.14090507
17.320452 -0.029486656 -0.047330119
17.323057 0.019241929 -0.034694321
17.343231 0.083403707 -0.033512075
17.357351 0.14105034 -0.029702932
17.38168 0.20850778 -0.031327661
17.409092 0.27891028 -0.034898613
17.427299 0.33953142 -0.032950349
17.448542 0.40404212 -0.032631729
17.464666 0.4630152 -0.029282361
17.492203 0.53279519 -0.034115035
17.512487 0.59506333 -0.033573601
17.531685 0.65571213 -0.031545728
17.545856 0.71241212 -0.028054126
17.568222 0.77632993 -0.028915701
17.595739 0.84484166 -0.03312555
17.609844 0.90121818 -0.028692629
17.631189 0.96383834 -0.029011948
17.650511 1.0238638 -0.028246753
17.669851 1.0851593 -0.028107239
17.696415 1.1514263 -0.032096192
17.710569 1.206858 -0.027980814
17.734045 1.2701802 -0.030025452
17.760662 1.3355025 -0.034334809
17.772743 1.3892852 -0.028817374
17.792118 1.4483657 -0.02837258
17.813517 1.51004 -0.029011346
17.825668 1.5641462 -0.024437139
17.835775 1.6143885 -0.018155593
17.836586 1.6580082 -0.0063416287
17.830168 1.6966566 0.009603668
17.829844 1.739602 0.023225429
17.825502 1.7798982 0.037764855
17.829453 1.825518 0.0473141
17.832336 1.8707877 0.057726018
17.831068 1.9127587 0.070943944
17.836977 1.9606508 0.080352873
17.834696 2.0013249 0.094113059
17.829344 2.0403242 0.10919666
17.832228 2.085592 0.11960951
17.833019 2.1279435 0.13204631
17.834892 2.1719146 0.14299953
17.833624 2.2138882 0.15621938
17.825184 2.2499409 0.17324823
17.830198 2.2959118 0.18193482
17.833082 2.3411806 0.19234577
17.83288 2.3835044 0.20470199
17.829517 2.4225583 0.2199486
17.822142 2.458962 0.2361158
17.826077 2.5033145 0.24628784
17.818649 2.540664 0.26277539
17.824659 2.5866635 0.27154255
17.826603 2.6309576 0.28155443
18.085785 2.8653812 0.12529495
18.057528 2.8859231 0.15676248
17.830181 2.7590103 0.31612048
17.832111 2.8020365 0.32675233
18.390211 3.25545 -0.024188602
18.40062 3.3035026 -0.020754719
18.427553 3.3631487 -0.026983636
18.43154 3.4065537 -0.017131964
18.462627 3.469497 -0.026167853
18.480188 3.5221987 -0.025920162
18.496799 3.5726576 -0.025450617
18.502985 3.6170886 -0.018263677
18.531992 3.6783841 -0.025897507
18.54755 3.7297599 -0.025189079
18.565166 3.7815158 -0.02526084
18.580709 3.8316226 -0.023930544
18.601465 3.8853772 -0.026267022
18.622221 3.9391329 -0.028604448
18.628408 3.9835644 -0.021418463
18.648155 4.0360222 -0.023214588
18.666883 4.087183 -0.024470363
18.680351 4.1356411 -0.021733247
18.686659 4.17945 -0.015811842
18.714697 4.2372332 -0.02259909
18.723063 4.2814198 -0.017456923
18.74588 4.3355556 -0.020575488
18.765629 4.3880129 -0.022371616
18.785444 4.4407949 -0.025110966
18.804178 4.4919567 -0.026364837
18.814608 4.5365238 -0.022003807
18.831333 4.5863581 -0.022795988
18.849056 4.6362224 -0.023509506
18.854336 4.6774631 -0.016421121
18.879354 4.7326241 -0.022207282
18.890846 4.7775431 -0.018707002
18.910646 4.8290558 -0.020822579
18.930502 4.8796215 -0.023258559
18.93264 4.9188633 -0.013905456
18.950415 4.9677811 -0.014937473
18.96826 5.0170226 -0.016913667
18.98811 5.0675888 -0.019349648
18.91416 5.0566168 0.041452251
18.863138 5.0606184 0.086795449
18.799623 5.0569429 0.14025714
18.728758 5.0489173 0.19911282
18.731962 5.0885115 0.20760326
18.642254 5.0684862 0.28005487
18.571337 5.0614066 0.33923092
18.512987 5.062325 0.38934341
18.415981 5.0370049 0.46686766
18.825102 5.3345051 0.19899732
18.830315 5.3754234 0.20702796
18.835644 5.4157186 0.21379595
18.884764 5.4843121 0.19104952
18.891163 5.5249591 0.19695579
18.899635 5.5672541 0.2014562
18.893415 5.6008492 0.21674462
18.958277 5.6772246 0.1829751
18.923925 5.6934676 0.21676618
19.260397 5.9358101 -0.0032177959
19.293974 5.9915652 -0.01559424
19.310926 6.0388865 -0.018290855
19.319315 6.0795898 -0.012222491
19.338331 6.1272898 -0.015700247
19.354259 6.1720443 -0.017233692
19.358564 6.2097745 -0.0092996731
19.381784 6.2598257 -0.015904808
19.398586 6.305232 -0.016092146
19.415524 6.3512826 -0.018164989
19.434578 6.396769 -0.021338416
19.44096 6.4361467 -0.014809314
19.454756 6.4801993 -0.014618391
19.467546 6.5229535 -0.013884261
19.488604 6.5697651 -0.017518423
19.500378 6.6112227 -0.016242988
19.517302 6.6560049 -0.017693009
19.529022 6.6984086 -0.016097168
19.544933 6.7418952 -0.017005881
19.544022 6.7759757 -0.0054022288
19.572552 6.8265152 -0.015694978
19.582193 6.8672705 -0.012695176
19.599171 6.9111066 -0.014464645
19.620369 6.9585633 -0.01998622
19.635267 7.0007524 -0.020352673
19.64282 7.0385895 -0.015325134
19.654596 7.0800471 -0.0140497
19.663158 7.1191826 -0.0095644128
19.672857 7.1589918 -0.0068850126
19.695156 7.2045846 -0.012963967
19.716272 7.2504501 -0.016918538
19.733299 7.2933407 -0.019009361
19.737724 7.3304482 -0.012339924
19.75062 7.3713107 -0.012245647
19.76243 7.4105535 -0.010666839
19.779474 7.4547143 -0.013380483
19.783888 7.4905515 -0.0060872743
19.80933 7.5381451 -0.014432849
19.821136 7.5773869 -0.012853088
19.84244 7.6229529 -0.019015465
19.854254 7.6621952 -0.017435705
19.865002 7.701087 -0.014994236
19.884159 7.7446804 -0.018808473
19.893911 7.7835436 -0.016448524
19.90785 7.8234887 -0.01659313
19.922802 7.8647323 -0.017280944
19.924141 7.8988924 -0.0086643342
19.939217 7.9395123 -0.010614827
19.964643 7.9858356 -0.018336628
19.966103 8.0193748 -0.010986511
19.981108 8.0596714 -0.011991864
19.993984 8.0992661 -0.011275717
20.005863 8.1388311 -0.010639183
20.018742 8.1784258 -0.0099220779
20.034864 8.2181282 -0.012108592
20.046745 8.2576933 -0.011473012
20.058609 8.29599 -0.010214608
20.08522 8.342042 -0.020061744
20.088673 8.3756371 -0.012546679
20.095337 8.4115543 -0.0082414635
20.109333 8.4505548 -0.0087055173
20.124407 8.4911747 -0.010656962
20.135258 8.5281734 -0.0088553475
20.154524 8.5698748 -0.013309438
20.160175 8.604496 -0.0084619671
20.178373 8.6458454 -0.012053397
20.1861 8.6821146 -0.0086108418
20.200092 8.7211142 -0.0090748975
20.218416 8.7618408 -0.013931867
20.2314 8.7995443 -0.013854617
20.238047 8.8341923 -0.0089237187
20.246834 8.8708124 -0.0063438229
20.265158 8.911541 -0.011198882
20.280216 8.9508915 -0.012524644
20.288054 8.9852676 -0.0097219432
20.306303 9.0256729 -0.013634732
20.317158 9.0626736 -0.011833115
20.328129 9.0990496 -0.011296081
20.343191 9.1383991 -0.012621846
20.348879 9.170805 -0.0074709989
20.362993 9.2091827 -0.0091986852
20.379171 9.2479382 -0.011708464
20.375292 9.278451 0.00057587214
20.372599 9.3086929 0.010734873
20.378233 9.3420448 0.016207071
20.378614 9.3739614 0.025043624
20.381054 9.4062595 0.033099994
20.374105 9.4350948 0.04670582
20.377678 9.4680672 0.052956298
20.374916 9.4979858 0.064059474
20.384756 9.5336885 0.066403352
20.381996 9.5636063 0.077505566
20.385569 9.5965786 0.083757006
20.37855 9.6250916 0.098307014
20.373728 9.6546307 0.11018943
20.386765 9.6913872 0.10994627
20.371277 9.7161446 0.13107239
20.381172 9.7509022 0.13309491
16.997669 -0.14095044 0.14429386
17.307453 0.17284942 -0.031969748
17.331783 0.24030709 -0.033594478
17.359182 0.30944216 -0.036541648
17.374315 0.36838484 -0.033274762
17.391459 0.42865479 -0.030465748
17.414824 0.49386859 -0.031868625
17.431965 0.55413675 -0.029060571
17.455334 0.61935258 -0.030464396
17.480764 0.68494624 -0.032649368
17.503189 0.74918658 -0.03445131
17.524466 0.81148428 -0.033829305
17.544813 0.87407482 -0.034230147
17.553703 0.92680335 -0.026127594
17.580318 0.99212563 -0.030435994
17.600599 1.0543957 -0.029893603
17.620934 1.1157179 -0.029670663
17.6434 1.1777422 -0.031171143
17.662668 1.2387145 -0.030086495
17.682095 1.2968473 -0.029963065
17.695253 1.3522522 -0.025930151
17.730059 1.4247906 -0.034591734
17.747356 1.4822222 -0.032743931
17.758425 1.5347071 -0.026684241
17.777872 1.59411 -0.02718363
17.806547 1.659812 -0.03227317
17.819761 1.7142692 -0.028559715
17.829819 1.7654581 -0.021957766
17.82855 1.80743 -0.0087379254
17.825342 1.8484008 0.0039946605
17.829239 1.8949654 0.013865264
17.827972 1.9369383 0.027082244
17.830856 1.982208 0.037495114
17.829588 2.024178 0.050714947
17.824219 2.0619082 0.066418499
17.835344 2.1134472 0.0721597
17.832054 2.1528273 0.08646214
17.829773 2.1935012 0.10022329
17.830647 2.2374444 0.11109402
17.830444 2.2797675 0.12345216
17.842686 2.3307128 0.12800933
17.831104 2.3647654 0.14730291
17.827744 2.4038191 0.16255049
17.832703 2.450738 0.17155749
17.826323 2.4871693 0.18780616
17.827187 2.5298443 0.19930066
17.836355 2.579113 0.20518124
17.829922 2.6164911 0.22174841
17.824621 2.6545436 0.2365116
18.005894 2.8311052 0.1321266
18.014097 2.8781312 0.13822712
17.82719 2.7812974 0.2716189
17.820829 2.8189981 0.28724474
18.318678 3.2268219 -0.023290344
18.331074 3.2749295 -0.019692469
18.356873 3.3339026 -0.024117403
18.369236 3.3842244 -0.020822903
18.396172 3.4438715 -0.027051818
18.408587 3.4932477 -0.024078675
18.436571 3.5519772 -0.030544566
18.436472 3.5924082 -0.018829146
18.46133 3.6504068 -0.023653144
18.476818 3.7014594 -0.022001492
18.500664 3.7581601 -0.026285142
18.507898 3.8016739 -0.019338038
18.532812 3.8587258 -0.024483394
