-0.00276566 -0.0105228 -0.00974528 -0.0196457 -0.00627899 -0.0115242 -0.0126839 -0.0120913 -0.0157242 -0.00240326 0.0119591 -0.00798035 -0.00702095 -0.0134735 -0.0145016 -0.0083046 -0.00702095 -0.00996526 -0.00447464 -0.00786591 -0.00948715 -0.0124257 -0.0117874 -0.00841522 -0.0060215 -0.00785446 -0.00914383 -0.0129375 -0.00777149 -0.00503159 -0.00934601 -0.0122547 0.0796115 0.208344 0.208909 0.209743 0.206839 0.205336 0.201248 0.197206 0.199707 0.209628 0.208015 0.216887 0.208115 0.216076 0.212494 0.208646 0.20026 0.20256 0.202423 0.19986 0.204777 0.204388 0.211653 -54.6075 -0.00871277 -0.0103207 -0.0125504 -0.0173721 -0.00713857 -0.00965118 -0.000831604 0.0905895 0.202559 0.209026 0.21138 0.201159 0.194378 0.203514 0.202489 0.204659 0.197964 0.203457 0.205467 0.202343 0.200115 0.204838 0.201746 0.201641 0.203569 0.198469 0.206803 0.202522 0.20207 0.1982 0.205553 0.202675 0.204803 0.196133 0.198795 0.206436 0.201784 -0.00611877 -0.00977325 -0.00363731 -0.00325394 -0.00696278 -0.00517082 -0.00363286 -0.00250626 0.130538 0.208353 0.211805 0.212254 0.20755 0.210314 0.198542 0.208259 0.203913 0.2111 0.212509 0.206816 0.205219 0.211878 0.203741 0.21405 0.203169 0.212856 0.200569 0.209682 0.204372 0.206665 0.210163 0.208307 0.210705 0.205929 0.20196 0.209988 0.207561 0.207905 -54.6075 -0.0102558 -0.0139084 -0.00655365 -0.00287755 0.00165558 -0.00502205 -0.0118523 0.16738 0.202341 0.21335 0.210121 0.210503 0.209339 0.20882 0.214006 0.212827 0.211664 0.208242 0.211193 0.207958 0.212873 0.212273 0.209588 0.211807 0.209493 0.210566 0.210056 0.21441 0.213041 0.212135 0.211363 0.215557 0.209282 0.218024 0.219265 0.214788 0.214256 -0.00139809 -0.00315094 0.00164413 0.00123596 -0.00836563 -0.010355 0.00168991 0.0634575 0.217188 0.216115 0.213189 0.221333 0.21319 0.210783 0.206837 0.208361 0.21335 0.209869 0.21258 0.213089 0.215662 0.210097 0.211279 0.204056 0.20722 0.216825 0.219589 0.213676 0.217588 0.210178 0.213501 0.217336 0.214178 0.213826 0.216768 0.215511 0.222996 0.205557 -54.6075 -0.00025177 0.00536346 0.00468826 -0.00510788 -54.6075 0.00569916 0.0127583 0.214917 0.209808 0.211639 0.213378 0.219303 0.211121 0.219244 0.220936 0.208775 0.207268 0.219074 0.215611 0.212139 0.209749 0.204384 0.217533 0.215521 0.21336 0.215401 0.212826 0.21471 0.213876 0.212729 0.217337 0.219428 0.218005 0.212687 0.216119 0.214537 0.205585 0.0919113 -0.000506083 0.001791 0.00562096 -0.00605202 -0.00426865 -0.000591278 0.108248 0.21826 0.226845 0.218136 0.218603 0.217594 0.216675 0.212778 0.215553 -54.6075 -54.6075 0.21891 0.213 0.208209 0.214745 0.205368 -54.6075 0.210564 0.214966 0.215187 0.224287 0.225407 0.216969 0.170027 0.00484848 0.0100727 0.00750732 0.00575447 0.0118065 0.00612259 -0.00441933 -54.6075 0.0046463 0.00979614 0.00524139 0.0110741 0.00734711 -0.00097084 0.00928879 0.0108013 0.00898361 0.00885773 0.00400543 0.0103703 0.00483704 0.0118732 0.00665665 0.00263214 0.014986 0.00551732 0.00466283 0.00414467 0.00795492 0.00366879 -0.00216675 -0.000460307 0.00317669
-0.00973129 -0.00809224 -0.000198364 -0.0051651 -0.00470352 -0.00977325 -0.00902049 -0.0143852 -0.00716019 -0.0138168 -0.00692558 -0.00836754 -0.0163746 -0.0128059 -0.0123558 -0.0117416 -0.0109571 -0.00524521 -0.0102234 -0.0145149 -0.0180244 -0.00685374 -0.00510788 0.00217819 -0.0045433 -0.00948334 -0.00247065 -0.0082283 -0.00450516 0.000408173 0.000104904 -0.00138664 0.0640119 0.210499 0.206684 0.206966 0.210968 0.213791 0.217869 0.205241 0.200212 0.200443 0.20557 0.200623 0.201151 0.204339 0.212181 0.200243 0.203068 0.195175 0.203797 0.207682 0.199739 0.19799 0.205175 -54.6075 -0.014637 -0.015667 -0.0130361 -0.0135231 -0.0130138 -0.00245667 -0.0146408 0.0822182 0.203968 0.213238 0.204226 0.202578 0.207621 0.201118 0.198942 0.20435 0.204557 0.204058 0.204663 0.20639 0.202806 0.202213 0.204636 0.212509 0.20638 0.206047 0.206163 0.202698 0.197147 0.20512 0.202613 0.203766 0.208891 0.205025 0.205879 0.203724 0.202608 -0.00445557 -0.0156746 -0.010108 -0.00750732 -0.00825691 -0.0124702 -0.0105171 -0.0069313 0.101024 0.205996 0.200878 0.20923 0.203453 0.204874 0.211132 0.211107 0.207298 0.209583 0.197891 0.208501 0.208848 0.209015 0.213409 0.213402 0.204334 0.200207 0.214298 0.204301 0.20504 0.216791 0.206326 0.201138 0.211544 0.20488 0.203706 0.208527 0.202759 0.201263 0.104942 -0.00148678 -0.00739098 -0.00321388 -0.00307655 -0.00622177 -0.00453822 -0.00510788 0.0993319 0.208935 0.209505 0.206605 0.210354 0.212605 0.205719 0.210241 0.21051 0.222748 0.217453 0.2117 0.215281 0.210549 0.213434 0.209429 0.217192 0.222591 0.214767 0.215157 0.216532 0.217981 0.214783 0.212488 0.213179 0.212328 0.212172 0.217644 0.212469 0.209324 0.00157928 0.000236511 -0.00723267 0.00111771 0.00363922 -0.00951258 -0.00604121 0.058176 0.213842 0.21579 0.21463 0.209843 0.21698 0.213753 0.212029 0.215317 0.215049 0.213085 0.219746 0.212576 0.216747 0.214277 0.212606 0.216053 0.21463 0.214101 0.217554 0.216937 0.21116 0.208551 0.211668 0.211807 0.214275 -54.6075 0.215717 0.209118 0.215199 0.203518 -0.00410461 -0.00362587 -0.00512695 -54.6075 0.000488281 -54.6075 -0.00898361 0.000968933 0.222893 0.215813 0.223104 0.210024 0.217892 0.220982 0.214819 0.2138 0.226509 0.219843 0.215734 0.212679 0.214863 0.214025 -54.6075 -54.6075 0.21044 0.21904 0.216688 0.218465 0.22105 0.216522 0.220016 0.21867 0.217854 0.214363 0.221901 0.219584 0.219242 -54.6075 -0.00152206 0.00224876 0.00139618 -0.000434875 0.00242043 0.00510788 -54.6075 0.202915 0.219236 0.221279 0.21718 0.218728 0.217937 0.212827 0.211071 0.211794 0.206743 -54.6075 0.207432 0.216934 0.223652 0.206089 0.211136 -54.6075 0.202198 0.224176 0.219676 0.220274 0.21146 0.217134 0.189687 0.00707817 0.00458145 0.00207647 0.00106303 -0.00460052 0.0016098 -0.000865936 -54.6075 -54.6075 0.00250053 0.00541687 0.00662867 0.000951767 -0.00186729 0.00207138 0.00252151 0.00574239 -0.00294876 0.00171852 0.00217247 0.00025177 -0.000919342 0.00338364 0.00444031 0.00169754 0.000686646 0.00278854 0.0031662 -0.00136757 0.00761795 -0.00018692 0.00050354 -0.00149155
-0.00469589 -0.0119724 -0.00840378 -0.00866063 -0.0154781 -0.0154266 -0.0130825 -0.0109177 -0.0203018 -0.0130167 -0.0113525 -0.00746346 -0.00419998 -0.00292587 -0.0058012 -0.0166512 -0.0107708 -0.0123024 -0.0092144 -0.0017643 -0.00534439 -0.00684738 0.00213623 -0.000274658 -0.00172997 -0.00527 -0.00583903 -0.0106812 -0.00646019 -0.0113277 -0.00912571 -0.00818634 0.0573451 0.211906 0.201685 0.203537 0.199393 0.205673 0.20041 0.201256 0.20451 0.206867 0.199993 0.20031 0.206509 0.200083 0.206604 0.19935 0.202757 0.206251 0.204334 0.208178 0.204418 0.20031 0.203798 -54.6075 -0.014239 -0.0119438 -0.0147514 -0.00600433 -0.0056057 -0.00803757 -0.00459671 0.0684252 0.203485 0.203064 0.203712 0.216316 0.203531 0.204914 0.199444 0.199022 0.202355 0.202343 0.20476 0.202785 0.207994 0.201664 0.206134 0.207928 0.202538 0.206554 0.202478 0.206993 0.208224 0.200047 0.211508 0.202126 0.206356 0.204084 0.205557 0.205591 0.211506 0.00672531 -0.00793839 -0.00220108 -0.0076561 -0.00101852 -0.00489807 -0.000804901 -0.00403595 0.0678797 0.211348 0.206236 0.208832 0.208487 0.206821 0.215908 0.206354 0.213066 0.212774 0.211414 0.202499 0.204187 0.210674 0.210796 0.209476 0.206209 0.213645 0.207193 0.205425 0.204235 0.203655 0.207649 0.207394 0.204948 0.202085 0.201344 0.208057 0.208775 0.206539 0.164127 -0.00184059 0.0143929 0.00452042 -0.000981649 -0.0046463 -0.00721105 -0.00477028 0.144083 0.217253 0.20927 0.216148 0.213329 0.215042 0.2197 0.217045 0.217833 0.210522 0.216921 0.20966 0.21628 0.210773 0.204746 0.212629 0.206852 0.215046 0.211414 0.216816 0.214543 0.211017 0.212009 0.210737 0.212376 0.215546 0.210701 0.211038 0.236534 0.211557 0.00569534 -0.00205231 -0.0026226 -0.00182819 -0.00858498 0.00117874 0.000218709 0.0347404 0.215582 0.213009 0.210009 0.214732 0.219602 0.214018 0.205883 0.211103 0.214779 0.206116 0.20957 0.208559 0.215611 0.210239 0.212701 0.216808 0.209179 0.215871 0.216011 0.215593 0.214909 0.206596 0.218657 0.212309 0.203606 0.213432 0.206945 0.206917 0.210176 0.213293 -0.00442123 0.00291729 -0.0036335 0.00342941 0.00214577 -0.00310326 0.00334835 0.00416565 0.216505 0.207451 0.211046 0.208947 0.213311 0.210812 0.216476 0.221046 0.220774 0.218091 0.224948 0.221558 0.212341 -54.6075 -54.6075 0.220583 -54.6075 0.218143 0.217894 0.216301 0.215141 0.219376 0.212221 0.218346 -54.6075 0.220235 0.216812 0.214958 0.213333 -54.6075 0.000782013 -0.00479635 0.00550461 -0.00811768 -0.00165049 -0.00909042 -0.00298405 0.141961 0.221205 0.225723 0.215714 0.210011 0.20908 0.216459 0.211657 0.214432 0.21382 -54.6075 0.211216 0.212608 -54.6075 -54.6075 -54.6075 -54.6075 -54.6075 0.211052 0.207268 0.214457 0.21328 0.2117 0.172671 0.00470734 0.00816154 0.0113869 0.00429789 0.00525475 0.00798798 0.00580597 0.00996208 0.000313759 0.000682831 -0.00188446 0.00728607 0.0062151 0.00269699 0.0129147 0.00298119 0.00787481 0.00830269 0.00566578 0.00394535 0.00239563 0.00564957 0.00614071 0.00461197 0.00712013 0.00841236 0.00476265 0.00235558 0.00935173 7.24792e-005 -0.00100517 0.00485992 0.00680542
-0.0178413 -0.0126972 -0.0157051 -0.0163129 -0.0191612 -0.00933838 -0.0115108 -0.00104141 -0.00649389 -0.0082016 -0.00114059 -0.0146828 -0.0244141 -0.00642776 0.000171661 -0.00677872 -0.00171471 0.00217819 -0.00882816 -0.0192528 -0.00745773 -0.00666809 -0.00968552 -0.00954628 -0.00730133 -0.00469589 -0.00129318 -0.00984573 -0.00628662 -0.0115547 -0.0049572 -0.00456238 0.0488586 0.207733 0.208523 0.198776 0.206425 0.201828 0.209433 0.210472 0.212191 0.199217 0.204281 0.197041 0.206852 0.205112 0.207932 0.205821 0.20245 0.198811 0.202538 0.204399 0.205095 0.205011 0.201349 -54.6075 0.00380897 -0.0105324 -0.00775337 -0.0115852 -0.00510406 -0.00751495 -0.00802803 0.0684433 0.206055 0.19059 0.197439 0.199558 0.205923 0.210278 0.204845 0.20406 0.202375 0.20647 0.202477 0.198696 0.208056 0.206699 0.207716 0.215504 0.206823 0.206984 0.203115 0.210304 0.199327 0.203339 0.19829 0.203114 0.203325 0.200553 0.193985 0.19768 0.207081 0.018898 -0.00544739 -0.0080204 -0.0163498 -0.00376129 -0.00742531 -0.00528081 -0.00624466 0.136669 0.208572 0.211105 0.208855 0.213848 0.208807 0.208199 0.207853 0.207823 0.204955 0.208679 0.202839 0.210442 0.204695 0.206132 0.206237 0.203705 0.209112 0.209896 0.214399 0.203102 0.202153 0.209801 0.211069 0.203039 0.195778 0.200695 0.204613 0.204875 0.20118 -54.6075 -0.00959269 -0.00283686 -0.00553894 -0.00480016 -0.00388718 -0.0031662 0.00560379 0.14738 0.209733 0.207146 0.205814 0.201683 0.209799 0.207558 0.210934 0.212479 0.216866 0.213109 0.207449 0.217113 0.210207 0.214287 0.213869 0.219302 0.217693 0.212663 0.212147 0.215754 0.217772 0.221874 0.214863 0.216908 0.214413 0.212899 0.21406 0.207146 0.211903 0.00242805 -0.00178051 -0.00204659 -0.00312233 -0.00749588 -0.00521088 -0.00294304 0.0421168 0.217195 0.21409 0.214581 0.21726 0.21431 0.213037 0.224606 0.212742 0.21311 0.216318 0.214635 0.211982 0.21825 0.219557 0.20705 0.214279 0.217943 0.212189 0.20945 0.212322 0.215332 0.215069 0.212898 0.214912 0.214516 0.217776 0.219189 0.223282 0.215382 -54.6075 0.00840378 0.00157738 -54.6075 0.00539398 0.00896454 0.0029068 -0.000907898 0.00737762 0.219921 0.213543 0.215738 0.215521 0.210535 0.215422 0.210743 0.202337 0.203056 0.21166 0.217463 0.217789 -54.6075 -54.6075 0.214771 0.215096 0.216465 0.209949 0.213842 0.220034 0.220575 0.215984 0.207938 -54.6075 -54.6075 0.216534 0.217655 0.211063 0.216633 -54.6075 -0.00158119 -0.00501378 -0.00104904 0.00273132 0.00241089 0.00545502 -0.00703621 -0.0121498 0.210735 0.213413 0.216112 0.221674 0.228954 0.206772 0.213127 0.219528 0.2199 0.212093 -54.6075 0.210896 0.212233 0.210775 -54.6075 -54.6075 -54.6075 0.224518 0.216474 0.221143 0.219282 0.216391 0.201968 0.0070076 0.00303841 0.00366211 0.0144863 -0.00163651 0.00237274 0.00652885 0.00405502 -0.000909805 0.00284386 -54.6075 -0.00047493 0.00548363 0.00684929 0.010788 0.00278282 0.00564194 0.00100327 0.00674248 -0.000274658 0.0135689 0.00155258 -0.00316811 0.00658798 0.00934601 4.3869e-005 0.00164604 0.0127068 0.00488472 0.0045929 -1.52588e-005 0.00650692 0.00494512
-0.00682831 -0.00939751 -0.0180664 -0.00930977 -0.0153618 -0.0112152 -0.0156085 -0.0061245 -0.0115852 -0.00671005 -0.015274 -0.0102291 -5.72205e-005 -0.0149117 -0.0088501 -0.00938797 -0.0127678 -0.0111179 -0.00893211 -0.0111885 -0.00745201 -0.0150642 -0.00358327 -0.00347519 -0.0112381 -0.00123215 -0.012455 -0.0103045 0.000137329 -0.00118637 -0.00740433 -0.0107918 0.0515144 0.207577 0.20541 0.208578 0.210772 0.208584 0.211178 0.203247 0.204155 0.20351 0.201754 0.204597 0.206867 0.202417 0.206638 0.208265 0.199993 0.206961 0.201902 0.200523 0.201988 0.198353 0.202915 0.0554504 0.00430298 -0.00838089 -0.0143166 -0.00975609 -0.00730038 -0.014904 -0.00571442 0.0594158 0.204924 0.200298 0.199183 0.206642 0.20471 0.199852 0.205976 0.206043 0.201561 0.20731 0.210426 0.209385 0.205067 0.212624 0.198441 0.207733 0.20593 0.20166 0.19997 0.205778 0.207787 0.203421 0.204123 0.20284 0.201122 0.20686 0.20797 0.212564 0.200521 0.0767708 -0.0144806 -0.0041949 0.00215912 -0.00758489 -0.0025692 -0.0152283 -0.00614738 0.130816 0.207685 0.205696 0.208126 0.201372 0.207304 0.207396 0.209181 0.208078 0.207165 0.204252 0.205326 0.205163 0.209888 0.206888 0.206789 0.215878 0.212076 0.203655 0.208498 0.203936 0.207634 0.216146 0.206673 0.21118 0.210907 0.207284 0.199209 0.203957 0.198509 -54.6075 -0.00777817 -0.00314522 0.000110626 -0.00228691 0.00138474 -0.00947062 -0.00391642 0.125875 0.212925 0.221291 0.20755 0.213037 0.214169 0.215288 0.211573 0.216663 0.21294 0.217909 0.214607 0.203983 0.214375 0.212988 0.214381 0.213949 0.210148 0.213419 0.208536 0.207634 0.217207 0.210966 0.217052 0.217206 0.214592 0.214268 0.215715 0.206833 0.215034 0.00655365 0.00603867 0.00716782 0.00329208 0.0022049 -0.00152969 -0.00116158 0.00737762 0.221443 0.21468 0.215006 0.214972 0.216297 0.216672 0.211112 0.212025 0.21653 0.219948 0.22241 0.224195 0.209885 0.216124 0.216339 0.215525 0.211789 0.216763 0.213161 0.214142 0.21161 0.203346 0.215426 0.209959 0.2125 0.214775 0.211571 0.203585 -54.6075 0.208164 -0.00767517 -0.00243378 -54.6075 0.000492096 0.00241661 -0.00348663 -0.00253391 -0.00590992 0.224409 0.220602 0.212723 0.221724 0.221708 0.209846 0.215431 0.217533 0.223915 0.201986 0.207783 -54.6075 0.210217 0.215549 -54.6075 0.217672 0.216993 0.226055 0.2139 0.217317 0.222237 0.219406 0.21553 -54.6075 0.21162 0.209957 0.213722 0.203686 0.213036 -54.6075 -0.00165558 -0.00069046 -0.000545502 0.00633621 0.002285 0.00415039 0.00922585 0.0013237 0.211812 -54.6075 0.210052 0.215197 0.214687 0.212756 0.217998 0.213383 0.220856 0.21665 0.212711 0.217884 0.218832 0.215439 -54.6075 -54.6075 -54.6075 0.217064 0.2214 0.218686 0.225452 0.211393 0.194038 0.0104675 0.00145594 0.0089407 0.00328922 0.00781441 0.00525761 0.00550938 0.00144005 0.00607491 0.00129127 -0.00112534 0.00379435 0.00524394 0.00439644 0.0121937 0.00303014 0.00247828 0.0116768 0.00445429 0.00489807 0.0086441 0.012722 0.0130882 0.00445938 0.00524139 0.00675837 0.0101013 0.00976753 0.00357437 0.016922 0.0109081 0.00511551 0.00943947
-0.00903034 -0.0143967 -0.00194931 -0.00445175 -0.0110703 -0.00820923 -0.010994 -0.0148163 -0.0124722 -0.0103149 -0.0104955 -0.00875473 -0.0163269 -0.0101318 -0.00917053 -0.0129318 -0.00776291 -0.0129128 -0.00497437 -0.0159454 -0.010273 -0.00362015 -0.00948524 -0.000495911 -0.0110588 -0.0107937 -0.0124359 -0.0025177 -0.00823593 -0.00201607 -0.00675011 -0.00575829 0.0205698 0.211203 0.205917 0.215416 0.200916 0.205635 0.205383 0.201464 0.20554 0.200077 0.203909 0.203302 0.201242 0.207676 0.202549 0.205894 0.208221 0.202498 0.201752 0.203287 0.204636 0.204281 0.201124 0.122375 -0.00769043 -0.0118141 -0.0136366 -0.0153198 -0.00892067 -0.00814819 -0.0108776 0.0827187 0.207378 0.20031 0.205355 0.205929 0.198896 0.209564 0.202703 0.207359 0.205765 0.19878 0.197908 0.197407 0.196623 0.204422 0.196257 0.213793 0.20808 0.208721 0.201935 0.208664 0.20871 0.20241 0.203159 0.207092 0.208042 0.200466 0.20437 0.207238 0.198566 0.155342 -0.00739288 -0.00571314 -0.0172997 -0.00647163 -0.00740623 -0.0086441 -0.00539398 0.0739161 0.199482 0.212772 0.209704 0.212894 0.204733 0.209703 0.211174 0.202745 0.210304 0.209443 0.215855 0.211872 0.213659 0.212639 0.210331 0.205786 0.208274 0.201868 0.207611 0.213486 0.200909 0.211723 0.214737 0.203435 0.200077 0.206698 0.214989 0.207588 0.202545 -54.6075 -0.0169086 -0.00806808 -0.0105591 -0.00246684 -0.00410843 -0.000974019 -0.00694656 0.175018 0.212943 0.209145 0.208922 0.205822 0.209339 0.201822 0.213154 0.205225 0.207691 0.212196 0.209652 0.216976 0.21763 0.226316 0.217094 0.214783 0.21706 0.215239 0.218817 0.212166 0.213853 0.215172 0.207991 0.217102 0.216087 0.215923 0.214746 0.211277 0.210737 0.00639725 0.000691732 -0.00858688 -0.00510693 -0.0050869 0.00215276 0.00382423 -0.000780106 0.215377 0.217325 0.216045 0.215972 0.216476 0.212828 0.212404 0.206539 0.212767 0.205994 0.210266 0.210742 0.2145 0.213455 0.216436 0.215612 0.213037 0.215336 0.213257 0.218338 0.217085 0.208435 0.223623 0.206682 0.20825 0.204102 0.212035 0.215202 0.213921 0.212776 -54.6075 0.00201416 0.0119934 0.00452042 -0.00184123 -0.00471878 0.00518799 0.00239182 0.222368 -54.6075 0.221687 0.213413 0.213635 0.217094 0.215117 0.214797 0.218019 0.213488 0.210094 0.219624 0.19593 0.214165 0.217587 0.206823 0.213531 0.215561 0.214808 0.20903 0.221748 0.215307 0.214636 0.208614 -54.6075 -54.6075 0.210102 0.212488 0.221581 -54.6075 -54.6075 -0.00729942 0.00127411 -0.00691128 -0.00160408 0.0025177 4.57764e-005 0.000511169 -54.6075 0.224602 -54.6075 0.209293 0.229141 0.222225 0.224817 0.213306 0.216799 0.2153 -54.6075 0.212799 0.214575 0.218079 -54.6075 -54.6075 -54.6075 0.223717 0.215332 0.220142 0.217735 0.217958 0.188539 -2.67029e-005 0.0152912 0.00385666 0.00719452 0.00872421 0.00764465 0.00588608 0.0134315 0.00714874 0.00811386 0.01054 0.00339699 0.012694 0.00103569 0.0135956 0.00934092 0.00176239 0.0143986 0.00740433 0.0083971 0.00701332 0.0070343 0.0032053 0.00980568 0.00808334 0.00144704 0.000341415 0.0107632 0.010067 0.00510788 0.00377369 -0.000216166 0.00912348
-0.0117245 -0.00960922 -0.0165634 -0.014576 -0.00480652 -0.00970268 -0.00292969 -0.0123367 -0.0132637 -0.00972366 -0.0108166 -0.0210762 -0.0112247 -0.0151647 -0.00520897 -0.0113468 -0.00396347 -0.00254059 -0.0105209 -0.0103436 -0.0108681 -0.00318909 -0.00931358 -0.0056591 -0.00733757 -0.0106468 0.000564575 -0.00875092 -0.0100288 -0.00881767 -0.00878906 -0.0102825 0.0583814 0.207191 0.218266 0.214767 0.206306 0.2096 0.211044 0.203285 0.206785 0.208138 0.201125 0.210052 0.20616 0.203903 0.200588 0.193975 0.204136 0.19746 0.203903 0.196644 0.209579 0.206644 0.216923 0.168415 -0.0069294 -0.00883484 -0.0121384 -0.00281525 -0.00662613 -0.00802231 -0.00514348 0.0899302 0.203537 0.206271 0.205696 0.207483 0.205471 0.202164 0.20295 0.205318 0.207664 0.205675 0.210068 0.214087 0.206652 0.204458 0.207832 0.206413 0.202831 0.197639 0.20705 0.207576 0.21867 0.205013 0.201355 0.206774 0.199759 0.202415 0.218193 0.209232 0.195457 0.170643 -0.0154266 0.00180435 -0.00972748 -0.0106163 0.000828743 -0.000328064 -0.00611115 0.13193 0.210999 0.208349 0.207668 0.207142 0.211395 0.205271 0.204288 0.206503 0.208183 0.212175 0.209953 0.207453 0.207844 0.208796 0.209613 0.21328 0.210466 0.21207 0.210167 0.210791 0.208178 0.208823 0.207033 0.205791 0.198616 0.211342 0.204653 0.206867 0.20125 -0.00127792 0.00494766 -0.00254631 -0.00265694 -0.000812531 -0.00646973 -0.00813293 -0.0034771 0.159791 0.212132 0.216064 0.212099 0.212065 0.214199 0.213251 0.203638 0.215552 0.214874 0.212921 0.206341 0.215519 0.218388 0.212692 0.221378 0.218252 0.215599 0.216952 0.217742 0.222118 0.215019 0.213936 0.223026 0.220232 0.212439 0.21725 0.218004 0.212528 0.214165 -0.00245667 0.00343959 0.00415802 -0.00340462 -0.0052433 -0.0112419 -0.00560951 -0.00125885 0.220645 0.21077 0.214705 0.214672 0.215008 0.215546 0.210932 0.211071 0.214917 0.21604 0.210766 0.220277 0.21385 0.223061 0.227627 0.206343 0.220184 0.211573 0.2113 0.217358 0.210505 0.210747 0.207874 0.211952 0.210556 -54.6075 -54.6075 -54.6075 -54.6075 0.211136 -0.00863647 0.00342369 0.00151443 0.00215912 -0.0013237 -54.6075 -0.00120544 0.000518799 0.214327 0.212692 -54.6075 0.219507 0.218451 0.221043 0.213974 0.21994 0.211792 0.222282 0.220776 0.213718 0.228619 0.224764 0.208889 0.214433 0.217126 0.224768 0.221754 0.222588 0.216715 0.216464 0.217888 0.219929 -54.6075 0.215572 0.211926 -54.6075 0.211227 0.205393 -0.0113182 -54.6075 -0.00102615 -0.000452042 -0.000892639 -54.6075 -54.6075 -0.00094986 -54.6075 -54.6075 -54.6075 0.217182 0.22258 0.220757 0.226158 0.215126 0.211226 0.21781 0.21109 0.222494 0.214497 0.196404 -54.6075 -54.6075 -54.6075 0.211575 0.216708 0.22155 0.21512 0.215919 0.180754 0.00359344 0.00922203 0.0094471 -0.00379753 0.00233459 0.00995445 0.00728989 0.00325775 0.00198555 0.00122833 0.00496292 0.00242043 0.00337219 0.00375366 0.00818253 0.00165558 0.00582886 0.00397873 0.00741959 0.000810623 0.000785828 0.0101089 0.00259399 0.00037384 0.0122356 0.00474548 -0.000389099 -0.00720596 0.00178337 -0.00194168 0.00763512 0.00269699 0.00835164
-0.0153503 -0.00910568 -0.0133228 -0.00935364 -0.00890732 -0.00640488 -0.00242615 -0.00727367 -0.0160027 -0.0115929 -0.0102291 -0.0187531 -0.0125783 -0.0102806 -0.00782013 -0.0124912 -0.0120049 -0.007967 -0.0161972 -0.00653839 -0.00937843 -0.00498199 -0.00957108 -0.00901413 -0.00683212 -0.0186348 -0.00600052 -0.00840759 -0.0125656 -0.0119286 0.000263214 -0.00723267 0.0357056 0.202847 0.203976 0.203145 0.209827 0.205666 0.197575 0.212337 0.205784 0.202566 0.203859 0.209412 0.199434 0.201286 0.208935 0.204182 0.204807 0.196056 0.20326 0.19961 0.20047 0.205223 0.208881 0.19194 -0.00748825 -0.00414085 -0.013958 -0.0134001 -0.010643 -0.00753784 -0.00535583 0.105294 0.211361 0.203041 0.206528 0.207493 0.201534 0.207194 0.210201 0.212406 0.20998 0.20109 0.211487 0.204778 0.19722 0.209036 0.196827 0.202227 0.204081 0.204396 0.199345 0.205908 0.196983 0.20363 0.203844 0.2026 0.204128 0.205755 0.204399 0.197237 0.201227 0.186428 -0.0121269 -0.0106672 -0.0106659 -0.00231934 -0.00383568 -0.0114021 -0.00922585 0.0891132 0.204857 0.202614 0.209074 0.198854 0.208786 0.207798 0.202827 0.209684 0.215755 0.210047 0.206175 0.209489 0.212173 0.211197 0.212999 0.210175 0.205469 0.208141 0.201395 0.204589 0.217121 0.206335 0.212143 0.209173 0.211773 0.204922 0.209308 0.204006 0.216049 -0.00142479 -0.00579643 -0.0077095 0.00163651 -0.00125885 0.00199509 0.00651169 -0.00305176 0.152704 0.220449 0.204742 0.208666 0.210153 0.214958 0.207805 0.221729 0.217585 0.212965 0.22131 0.212675 0.215855 0.217497 0.21817 0.210056 0.216236 0.211662 0.214619 0.20653 0.198807 0.213882 0.214321 0.210968 0.215321 0.215466 0.217583 0.212473 0.209171 0.21179 -0.00408554 -0.00689507 -0.000671387 -0.00117683 -0.00901413 -0.00235748 -0.00633621 -0.00301647 0.218693 0.210625 0.21554 0.214027 0.21174 0.215109 0.213082 0.20443 0.207949 0.207838 0.207497 0.221029 0.206064 0.204998 0.210056 0.210271 0.217077 0.213513 0.215173 0.215231 0.215766 0.217077 0.214542 -54.6075 0.211048 0.203152 0.210537 0.21734 0.214767 0.220665 0.00287247 0.00802994 0.00438499 -54.6075 0.0021286 -54.6075 -0.00184631 -0.00414658 0.209417 0.216286 0.21719 0.211004 0.213289 0.20348 0.210209 0.217981 0.213604 0.22 0.213522 -54.6075 0.213782 0.213898 0.219086 0.215126 0.220692 0.222973 0.220409 0.222353 0.218468 0.213516 0.218843 0.225792 0.214931 0.221979 0.22065 -54.6075 0.213047 0.20263 0.0021553 -54.6075 -54.6075 -0.00595856 0.00140953 -54.6075 0.00433731 0.0584869 0.220531 0.221746 0.212468 0.219702 0.214294 0.215346 0.219501 0.215633 0.218151 0.218212 0.213888 0.220205 0.223789 0.203819 -54.6075 0.218224 -54.6075 0.207645 0.229094 0.218767 0.218082 0.206905 0.187656 0.00622559 0.00561428 0.00559425 0.00478744 0.0063591 0.00150204 0.00392405 0.00827217 0.00597477 0.00632 0.00669098 0.00615978 0.00526237 0.00568676 0.00884438 0.00358772 0.00817013 0.00907135 0.00347996 0.00504303 0.00325012 0.011809 0.00818062 0.00447464 0.000253677 0.00810814 0.00749207 -0.00219727 0.000879288 0.008564 0.00583267 0.00980949 0.0082283
-0.00744247 -0.00670815 -0.017292 -0.00654221 -0.00669289 -0.0171642 -0.010294 -0.0154419 -0.0125427 -0.00977516 -0.0134277 -0.00821304 -0.0133343 -0.00829315 -0.00881577 -0.00558472 -0.0026207 -0.0077858 -0.0109291 -0.00794029 -0.0111771 -0.0154915 -0.00303268 -0.0075264 -0.00838661 -0.00399017 -0.00658671 -0.00980759 -0.0157509 -0.00574875 -0.0123825 -0.00881672 0.0237617 0.19891 0.207775 0.205999 0.205402 0.206898 0.203018 0.210704 0.20484 0.220177 0.206987 0.211063 0.198302 0.20492 0.209003 0.206333 0.20186 0.200348 0.201411 0.19912 0.208952 0.210388 0.2033 0.193516 -0.0145416 -0.0117683 -0.00900459 -0.0112476 -0.0118523 -0.0118046 -0.00912857 0.0776304 0.198711 0.207493 0.199638 0.204596 0.204021 0.20154 0.199036 0.203621 0.200382 0.201638 0.206326 0.20336 0.202328 0.199354 0.203257 0.210795 0.204346 0.205069 0.200176 0.205097 0.2062 0.204796 0.205666 0.2036 0.209398 0.210846 0.207868 0.201191 0.199104 -54.6075 -0.00509548 -0.00209808 -0.0103607 -0.00378418 -0.0162334 -0.0100784 -0.00838375 0.0624568 0.201332 0.212086 0.206385 0.208732 0.209957 0.208843 0.208096 0.21159 0.209448 0.20789 0.205482 0.212406 0.204987 0.20496 0.207584 0.210346 0.211524 0.214788 0.205498 0.210081 0.197903 0.208397 0.205906 0.208121 0.210344 0.212448 0.202877 0.217495 0.209824 -0.00699234 -0.00832748 -0.00473213 -0.00788498 -0.00669098 0.000286102 0.00217247 -0.00451279 0.124352 0.212657 0.20812 0.214554 0.203148 0.211113 0.212547 0.206791 0.205847 0.213366 0.211466 0.208874 0.213984 0.21283 0.21954 0.220917 0.212688 0.208712 0.214304 0.210652 0.217468 0.213813 0.213806 0.2201 0.208603 0.215727 0.215626 0.217583 0.210423 0.211968 3.43323e-005 -0.00250244 0.00147629 -0.00366974 -0.00337315 -0.00891113 -0.00631714 -0.00115204 0.213009 0.214405 0.2138 0.215269 0.220123 0.21385 0.217529 0.209362 0.209188 0.217867 0.208649 0.216523 0.212152 0.214455 0.211997 0.210274 0.204281 0.213652 0.20788 0.207035 0.207102 0.216021 0.21981 0.208439 0.209476 0.2094 0.215396 0.215677 0.209282 0.199173 -0.00549316 -0.00312805 0.00300217 -54.6075 -54.6075 -54.6075 -54.6075 -0.00922775 0.216322 0.204369 0.213425 0.211834 0.212108 0.216303 0.220117 0.217048 0.211235 0.214586 0.215385 -54.6075 0.211824 0.213621 0.215326 0.222363 0.213398 0.216248 0.21336 0.219078 0.213881 0.210407 0.215329 0.212563 0.213713 0.212468 0.212603 0.218513 0.214581 0.212446 -0.00933838 -0.0148335 0.00277328 -0.00503731 -54.6075 -0.00410271 0.00104904 0.0130145 0.214973 -54.6075 0.214451 0.218201 0.22802 0.213381 0.207685 0.220726 0.210337 0.220829 0.221119 0.220306 0.21632 0.199047 -54.6075 -54.6075 -54.6075 0.199768 0.220942 0.214584 -54.6075 0.21191 0.210236 -54.6075 -0.0039711 -0.00171661 -54.6075 -54.6075 -54.6075 0.0203629 -54.6075 -54.6075 0.00542831 0.00596237 0.00121307 -0.00490189 0.00245476 0.00721359 0.00675583 0.00592041 0.0104752 0.00324059 0.0045166 0.00596237 0.0063413 0.00974369 0.00924492 0.00588226 0.00877094 0.0107002 0.0131159 0.00946617 0.00955582 0.00427914 0.00513458 0.00979042
-0.0104656 -0.00809479 -0.0167904 -0.0162315 -0.0136185 -0.0214233 -0.0101166 -0.0144386 -0.0209122 -0.0131607 -0.0111237 -0.00951767 -0.0146408 -0.00778961 -0.0134058 -0.00614738 -0.0101738 -0.00811005 -0.00762939 0.00129445 -0.00162506 -0.0110493 -0.0151901 -0.0119476 -0.00644938 -0.00717735 -0.00654793 -0.00815201 -0.00555038 -0.00386047 -0.00973129 -0.00941467 0.132486 0.112562 0.200222 0.204855 0.215439 0.20338 0.207638 0.20225 0.193268 0.19717 0.201087 0.20385 0.202589 0.193924 0.206057 0.203384 0.204342 0.213512 0.20863 0.20636 0.203487 0.199312 0.208328 0.193783 -0.0134544 -0.00807826 -0.00964737 -0.00358582 -0.00970078 -0.00940069 -0.0124779 0.039843 0.198727 0.202332 0.207954 0.205397 0.193188 0.217667 0.203159 0.20097 0.197357 0.206053 0.200745 0.203369 0.210552 0.20138 0.206558 0.208754 0.206165 0.213379 0.20315 0.21107 0.205475 0.207363 0.202562 0.195297 0.204812 0.200262 0.198021 0.215256 0.20364 -54.6075 -0.0110378 -0.00931931 -0.0125675 -0.00361252 -0.00671895 -0.00437291 -0.0115814 0.150028 0.213924 0.201042 0.20245 0.205128 0.203556 0.20573 0.207783 0.206253 0.210037 0.207699 0.20998 0.207973 0.210266 0.207193 0.209942 0.208796 0.204103 0.209406 0.206993 0.204672 0.199394 0.209525 0.212582 0.215284 0.206701 0.219028 0.212742 0.2019 0.209859 -0.00583267 0.000221252 -0.00562096 -0.00351143 -0.00394313 -0.00569534 -0.00496292 -0.00244713 0.164613 0.213599 0.215435 0.208374 0.216299 0.207668 0.213295 0.212821 0.2141 0.210472 0.202614 0.21386 0.215565 0.210445 0.224318 0.214195 0.211065 0.211196 0.213005 0.20549 0.214935 0.213829 0.211349 0.212059 0.210747 0.212207 0.22106 0.216221 0.221346 0.216263 0.00875473 0.00178146 0.00444794 -0.00336647 0.0030899 -0.00479507 -0.003685 0.0028801 0.211047 0.217373 0.224117 0.210443 0.21899 0.213203 0.209986 0.215618 0.210805 0.21513 0.217539 0.21648 0.215448 0.218494 0.213861 0.22576 0.215618 0.213987 0.220757 0.216568 0.214343 0.212668 -54.6075 0.214576 0.213877 0.215738 0.214836 0.220978 -54.6075 0.215607 -54.6075 -54.6075 -54.6075 0.00711823 1.14441e-005 0.00231934 -54.6075 0.000959396 -54.6075 0.21328 0.205879 0.213078 0.216267 0.209747 0.212452 0.212339 0.213463 0.210983 0.223274 0.2034 0.219219 0.227835 0.219849 0.207096 0.215022 0.219571 0.218218 0.212761 0.219267 0.213364 0.2156 0.216999 0.217579 0.220112 0.22156 0.231987 0.212492 0.214529 0.00660706 -0.00653648 0.00410461 0.00328445 -54.6075 -0.00680542 -54.6075 0.0154819 0.220396 -54.6075 -54.6075 0.217537 0.220303 0.218428 0.221015 0.216957 0.219046 0.216484 0.218563 0.21364 -54.6075 0.21063 -54.6075 -54.6075 -54.6075 0.208641 0.209274 0.218697 0.22179 0.222996 0.212536 0.00131607 -0.000362396 0.00536156 -0.00697899 -0.00454712 -0.0047245 0.0114098 0.00114059 0.00857162 -0.000743866 -54.6075 -0.00225449 0.00395966 0.002285 0.0132866 0.0114403 0.00723457 0.00169373 0.00644493 0.0114975 0.00588608 0.00782394 0.00351334 -0.000926971 0.00494385 0.00943184 -0.000701904 0.0102882 0.0109844 0.0159645 0.0128193 0.00464249 0.0113506
-0.0143127 -0.0119629 -0.0150719 -0.0103798 -0.0107943 -0.00529861 -0.0178337 -0.0145391 -0.0154762 -0.00670433 -0.00963593 -0.0182266 -0.00755882 -0.0136108 -0.0149517 -0.014431 -0.0137749 -0.0102272 -0.00481415 -0.00673167 -0.0134468 -0.00906753 -0.0103207 -0.0103722 -0.00522614 -0.0123367 -0.00636673 -0.0135612 -0.0084877 -0.00951767 -0.0119324 -0.0099144 0.0875187 0.103781 0.204247 0.198364 0.207651 0.202492 0.198277 0.199217 0.19492 0.205183 0.214413 0.199244 0.209099 0.201 0.202834 0.205536 0.204192 0.202679 0.200998 0.20013 0.200654 0.208454 0.209982 -54.6075 -0.0107269 -0.0151882 -0.0144005 -0.0105686 -0.00936317 -0.0059344 0.00668716 0.0916691 0.206388 0.201691 0.202465 0.206142 0.207582 0.202769 0.204893 0.202917 0.210186 0.207293 0.206026 0.203266 0.210157 0.197823 0.208706 0.203588 0.211771 0.20413 0.205305 0.209225 0.205824 0.208672 0.199617 0.210266 0.205652 0.202499 0.204695 0.20097 0.201983 -54.6075 -0.00305748 -0.0021553 -0.00486851 -0.00745773 -0.00603358 -0.00981331 -0.00844955 0.117081 0.208923 0.218578 0.214622 0.212208 0.20801 0.209772 0.210579 0.214403 0.209621 0.202118 0.203995 0.202982 0.207862 0.215839 0.210325 0.213989 0.208202 0.208739 0.212923 0.206656 0.214033 0.204573 0.20348 0.202478 0.203104 0.209517 0.202456 0.21735 0.213955 0.00954819 -0.00320816 -0.00823784 -0.00540161 -0.00326538 -0.00404358 -0.00642776 -0.00827026 0.0834147 0.212849 0.207809 0.205261 0.20834 0.206125 0.207273 0.209105 0.220242 0.210213 0.205578 0.207624 0.206703 0.206576 0.213692 0.214615 0.214849 0.213177 0.216953 0.219627 0.210337 0.219986 0.21469 0.216511 0.216223 0.214186 0.217793 0.219494 0.207726 0.219723 0.0136986 -0.00800705 -0.00588608 -0.00639534 -0.00486374 -0.00108528 -0.00547504 -0.0053978 0.217659 0.215824 0.211069 0.210283 0.220387 0.213615 0.216447 0.21596 0.208233 0.211407 0.207859 0.214088 0.207909 0.212753 0.206728 0.209839 0.208244 0.215605 0.21365 0.211985 0.212219 0.211615 -54.6075 0.206833 0.217005 0.210903 0.216484 0.20702 0.217106 -54.6075 0.0127602 0.00461388 0.0012989 -0.000173569 -0.0029335 -0.00391642 -0.00427628 -54.6075 -54.6075 -54.6075 0.219193 0.21719 0.223255 0.223877 0.213149 0.209938 0.212406 0.215345 0.2062 0.206516 0.213394 0.214419 0.216529 0.213428 0.218149 0.216669 0.212818 0.211052 0.215052 0.211403 0.213947 0.219255 0.211021 0.210762 0.210812 0.216061 0.21283 0.215374 0.00382614 -0.00110817 -0.00803375 -0.00509834 0.0022583 -54.6075 -0.00827789 -54.6075 0.220815 0.220947 0.21897 0.218152 0.210953 0.21526 0.218516 0.22337 0.218974 0.220266 0.214565 -54.6075 -54.6075 -54.6075 -54.6075 -54.6075 -54.6075 -54.6075 0.218903 0.21911 0.219418 0.21455 0.21468 0.00518036 0.00514603 0.00483608 0.00587654 0.000305176 0.00743198 0.00702858 0.000902176 0.00225925 0.00231838 -0.00125122 -0.000141144 0.00425816 0.0018177 0.00442696 0.00348473 0.00420252 -0.0117569 0.00776672 -0.00393041 -0.000514984 0.0101299 0.0117264 -54.6075 -0.000219345 -0.000165939 0.0111198 0.00110881 -0.00430044 0.00579071 0.00765419 -0.00142479 -0.00251389
-0.0203896 -0.0174115 -0.0102043 -0.00578499 -0.0148087 -0.0103836 -0.0122019 -0.0139236 -0.00970078 -0.0141735 -0.0142212 -0.0115789 -0.010273 -0.0166397 -0.00605965 -0.00291443 -0.00285053 -0.0047226 -0.00775146 -0.00880051 -0.0078392 -0.0104841 -0.00725937 -0.00889206 -0.0121193 -0.0144653 -0.00841141 -0.00754547 -0.00543594 -0.00243759 -0.00576019 -0.00563049 0.0282913 0.203053 0.205368 0.203962 0.201801 0.20306 0.208149 0.202348 0.205868 0.197763 0.207195 0.196627 0.203194 0.208813 0.204193 0.210484 0.200586 0.202518 0.200274 0.205158 0.204147 0.200409 0.207041 -54.6075 -0.00604248 -0.00548172 -0.012989 -0.00521278 -0.00950623 -0.00805664 -0.00858307 0.0317764 0.204514 0.210388 0.206805 0.203596 0.206635 0.198448 0.197762 0.199148 0.199522 0.201303 0.198313 0.212421 0.199409 0.206608 0.207185 0.200464 0.205975 0.205341 0.206224 0.203979 0.205316 0.203104 0.205053 0.212254 0.200157 0.216312 0.201338 0.204275 0.203145 -54.6075 -0.0139294 -0.00978088 -0.00637436 -0.00540161 -0.0103683 -0.00511932 -0.00300789 0.0939949 0.216831 0.213989 0.212343 0.211117 0.208843 0.211432 0.208794 0.203657 0.206517 0.211744 0.212225 0.208176 0.207264 0.210922 0.20903 0.207376 0.208881 0.207929 0.21524 0.207331 0.208462 0.211733 0.214651 0.212111 0.207018 0.211178 0.212776 0.208244 0.206654 0.0374146 -0.00434875 -0.00346375 0.00487709 -0.000867844 0.00147438 -0.00131989 -0.0017271 0.095499 0.208974 0.211108 0.209711 0.213177 0.210491 0.212503 0.210674 0.207436 0.20864 0.210276 0.209736 0.213666 0.208828 0.214901 0.207977 0.21084 0.209166 0.21319 0.213753 0.22025 0.215567 0.214417 0.206829 0.220711 0.218225 0.219765 0.217129 0.218081 0.21472 0.0342407 -0.00668144 0.00446065 0.00314713 -0.000997543 0.00213242 0.00234413 -0.00489426 0.208885 0.209059 0.21806 0.215724 0.210377 0.20829 0.210423 0.207756 0.215057 0.20895 0.210823 0.21114 0.219275 0.215059 0.21417 0.219294 0.220737 0.217295 0.221624 0.20789 0.22422 0.214659 -54.6075 0.19912 0.212355 0.212557 0.219131 -54.6075 0.212841 0.204136 0.0158844 -0.000756264 0.00209045 -0.00665283 0.00714111 0.00208855 -0.00082016 -54.6075 -54.6075 0.209827 0.212944 0.212673 0.213041 0.211848 0.217054 0.219526 0.221535 -54.6075 0.220329 0.218864 0.211594 -54.6075 0.21781 0.218773 0.215969 0.211992 0.218731 0.220169 0.218778 0.214128 0.21728 0.214995 0.22105 0.211057 0.209354 0.209501 0.216422 0.214304 0.00489807 -0.00229168 -0.00338109 -0.00494003 -0.000524521 0.00487137 -54.6075 0.0107775 0.215572 0.217751 0.214136 0.212305 0.221478 0.207493 0.220762 0.214832 -54.6075 -54.6075 -54.6075 -54.6075 -54.6075 -54.6075 -54.6075 -54.6075 -54.6075 -54.6075 -54.6075 0.219448 0.216465 0.213488 0.205826 0.00493622 0.00457001 0.0043087 0.00624657 0.012867 0.00850105 0.0048542 0.00197983 0.00661278 0.0020752 0.00170898 0.0032692 0.000526428 0.00788879 -0.00107002 0.00110626 0.00486374 -0.000263214 0.003088 0.00436401 0.00310516 -0.00332832 -0.00821877 0.000720978 -0.0063858 0.00467873 -0.00439262 -0.00818634 -0.000306447 0.00546265 0.00572681 0.00678444 0.00850105
-0.0180779 -0.00817362 -0.0114212 -0.0145683 -0.0111771 -0.00775019 -0.0111675 -0.00963593 -0.00541687 -0.00983302 -0.00590515 -0.0103035 -0.0182266 -0.0102959 -0.00993347 -0.00676346 -0.00686455 -0.0215607 -0.00875473 -0.0125961 -0.00587082 -0.00213814 -0.009552 -0.0102005 -0.005867 -0.0067838 -0.00740814 -0.00662231 -0.0127373 -0.00966644 -0.00964546 -0.0116177 0.0469398 0.182472 0.202381 0.194283 0.203785 0.205864 0.202404 0.202202 0.202023 0.211252 0.207043 0.198058 0.200912 0.204967 0.195744 0.205469 0.208412 0.205488 0.204315 0.200001 0.1975 0.202065 0.205157 -54.6075 -0.0109901 -0.00661278 -0.0109348 -0.020813 -0.00721359 -0.0172539 -0.010877 0.0715609 0.20113 0.201859 0.20304 0.210514 0.198978 0.195499 0.204184 0.202847 0.201833 0.198189 0.207863 0.20356 0.203369 0.198166 0.203257 0.202946 0.204235 0.19894 0.20259 0.202097 0.207631 0.201637 0.203835 0.209469 0.209623 0.206387 0.199983 0.199528 0.201794 -54.6075 -0.00631142 -0.0102615 -0.0092392 -0.013689 -0.0126495 -0.00399303 -0.0133476 0.0999654 0.202299 0.20665 0.214664 0.205832 0.205967 0.203709 0.20095 0.200039 0.202831 0.208393 0.206573 0.212948 0.20686 0.211761 0.20648 0.20783 0.209389 0.20937 0.206547 0.21104 0.204365 0.206594 0.208505 0.206947 0.204855 0.207569 0.209087 0.202911 0.203041 0.0684853 -0.00376701 -0.00369072 -0.0070982 0.0105667 -0.000814438 0.00378799 -0.00125885 0.144166 0.213203 0.204224 0.214653 0.213217 0.204758 0.203808 0.210238 0.20359 0.212208 0.213989 0.217348 0.219213 0.210808 0.214167 0.211758 0.220388 0.215995 0.208443 0.209501 0.212334 0.214108 0.212706 0.215309 0.217838 0.21709 0.215593 0.214399 0.215674 0.20808 0.0437775 0.0042963 0.00151952 0.00217819 -0.00639915 -0.00919342 -0.00618935 -0.00332069 0.21639 0.216667 0.211987 0.214827 0.218105 0.224232 0.210264 0.21574 0.210983 0.218405 0.211658 0.214598 0.212718 0.206699 0.210855 0.208054 0.211388 0.210653 0.212683 0.211346 0.215825 0.21118 0.21904 0.218512 0.213898 0.21397 0.208447 -54.6075 -54.6075 0.217445 0.0301914 -0.00456047 0.00428009 0.00469208 0.00686264 -0.000289917 -54.6075 -54.6075 0.213165 0.213957 0.205574 0.213264 0.217691 0.211668 0.212379 0.215076 0.217602 -54.6075 0.212299 0.211388 0.201752 -54.6075 0.211693 0.219856 0.213884 0.216889 0.214724 0.212175 0.218302 0.219467 0.21232 0.215384 0.209892 0.218243 0.213701 0.214931 0.2204 0.21324 -9.91821e-005 -0.00642776 -0.00769424 -54.6075 -0.00486565 -0.00481796 -54.6075 0.0122185 0.214586 0.22646 0.222841 0.218989 0.213636 0.210543 -54.6075 -54.6075 -54.6075 -54.6075 -54.6075 -54.6075 0.21085 0.211184 0.211388 0.212611 -54.6075 0.222454 -54.6075 0.218261 0.221724 0.217395 0.206646 0.00395584 0.00121307 0.00981522 -0.000230789 0.0017128 -0.00166893 0.00568581 0.012001 0.00465012 0.00618553 0.00253296 0.00229263 0.00135422 0.00231552 0.00624466 0.00193024 -0.00169563 0.00433731 0.000715256 0.0051918 0.00114059 0.00110817 0.00787926 0.00154877 0.00151062 -0.000976563 -0.00479889 -0.00283051 -54.6075 -0.00635147 0.00142288 0.00161934 0.00588226
-0.0141964 -0.0179234 -0.00631332 -0.0128644 -0.0130577 -0.0218582 -0.0150127 -0.0115967 -0.0128212 -0.017437 -0.0132065 -0.0120964 -0.0123024 -0.00899887 -0.00359154 -0.00419998 -0.00425339 -0.0118523 -0.00787481 -0.0129089 -0.00964546 -0.0073967 -0.0159492 -0.0105438 -0.00510788 -0.012064 -0.011013 -0.00974274 -0.00664266 -0.0135956 -0.0141926 -0.0111885 0.0427386 0.209988 0.204369 0.203163 0.198502 0.201523 0.198633 0.201546 0.202194 0.201758 0.200974 0.201209 0.20076 0.200699 0.197395 0.205227 0.209328 0.206646 0.204159 0.205265 0.204088 0.202484 0.202548 -54.6075 -0.00124741 -0.0153122 -0.01717 -0.00123596 -0.0106506 -0.0123844 -0.0102959 0.0632362 0.202624 0.203362 0.210398 0.204277 0.203651 0.201431 0.205736 0.20385 0.203409 0.200825 0.198092 0.198809 0.203108 0.207626 0.208666 0.211174 0.206109 0.204954 0.205179 0.192345 0.202332 0.207569 0.20278 0.200607 0.207005 0.205662 0.210978 0.203144 0.200929 0.018856 -0.00401688 -0.00969315 -0.00718117 -0.00557804 -0.00852203 -0.0036869 -0.00363922 0.122016 0.211758 0.213114 0.206766 0.20903 0.209021 0.210869 0.208813 0.20417 0.210325 0.208733 0.209297 0.204669 0.208176 0.207771 0.199429 0.2022 0.206768 0.207159 0.203758 0.210765 0.208928 0.211102 0.214434 0.205151 0.215132 0.205966 0.217718 0.209498 0.212259 -54.6075 -0.00675106 -0.0077858 -0.00568581 -0.00355148 -0.00753593 -0.00319672 -0.00297546 0.104637 0.213547 0.208914 0.204639 0.204685 0.209435 0.210705 0.212923 0.202538 0.215015 0.214579 0.211349 0.214134 0.209671 0.211226 0.20988 0.215881 0.211657 0.216007 0.210382 0.212086 0.208855 0.212461 0.216507 0.21637 0.223835 0.222164 0.226845 0.216957 0.225826 0.127247 0.00508881 0.000541687 0.00152588 -0.00326824 -0.00603199 -0.000272751 -0.0045433 0.207592 0.207644 0.207069 0.211798 0.21207 0.210773 0.211099 0.214408 0.20546 0.21579 0.213146 0.216663 0.212208 0.211632 0.209793 0.214722 0.214472 0.215285 0.216143 0.213818 0.216657 0.207129 0.217068 0.208174 0.210949 0.203632 0.222908 0.210014 0.201694 0.217375 0.0495796 -0.00512695 0.00231171 0.00732613 -0.00199699 0.000666618 0.00347137 -0.000187874 0.208162 0.214125 0.208618 0.215405 0.212524 0.210196 0.212719 0.208921 -54.6075 0.214254 0.216249 0.214554 0.214897 0.214735 0.216686 0.20467 0.210978 0.214882 0.209221 0.216654 0.213182 0.213394 0.215445 0.211067 -54.6075 0.208569 0.211409 0.219044 0.216711 0.212368 0.00860977 -0.00182343 0.00790787 -0.00673294 -0.000614166 -0.00210381 -0.00529671 -54.6075 0.21277 0.217525 0.222363 0.216999 0.219345 -54.6075 0.21471 -54.6075 -54.6075 0.209778 -54.6075 0.220482 0.213976 0.200897 0.218288 0.21669 -54.6075 0.219505 0.216213 0.216507 0.215328 0.212353 0.21207 0.0116005 0.003232 0.00891781 0.00695991 0.0103397 0.00642014 0.00141907 0.00633812 0.00313473 0.00372887 -0.000333786 0.00562 0.00632477 0.000349045 0.00329304 0.00620651 0.0066824 0.00639343 0.0118847 0.0043745 0.00647545 0.00373936 0.00611687 0.00327682 0.00545406 0.0142962 -0.00676346 0.001194 -0.00180435 -54.6075 0.00322723 0.00843239 0.0154037
-0.0122128 -0.0080719 -0.0266914 -0.019577 -0.0223312 -0.0129128 -0.0165062 -0.0126534 -0.0127436 -0.00213623 -0.00499535 -0.0102844 -0.00621033 -0.0111186 -0.00710678 -0.00648689 -0.0116386 -0.0162754 -0.00729497 -0.00960541 -0.0146484 -0.00788498 -0.0134716 -0.0106265 -0.0171776 -0.0123806 -0.0146179 -0.0168896 -0.016819 -9.91821e-005 -0.00842857 0.00509644 0.0425613 0.206383 0.203636 0.198582 0.209326 0.195374 0.202013 0.199417 0.20576 0.203632 0.213631 0.205528 0.209641 0.206051 0.211054 0.199828 0.198494 0.201727 0.20607 0.207959 0.205662 0.207096 0.202717 0.0512924 -0.0287819 -0.00609207 -0.0113239 -0.00886917 -0.00472164 -0.0090065 -0.00626183 0.0538769 0.201923 0.20879 0.204737 0.193108 0.203882 0.208593 0.207087 0.203693 0.206539 0.212837 0.204598 0.201778 0.197561 0.20517 0.203335 0.19845 0.20437 0.205544 0.209053 0.20335 0.201415 0.198872 0.20382 0.210894 0.203568 0.199589 0.196692 0.206444 0.202065 0.0229797 -0.00629616 -0.00635052 -0.0096283 -0.00766182 -0.00111771 -0.00836182 -0.0148048 0.0634489 0.210278 0.219604 0.208798 0.207243 0.209694 0.205048 0.200521 0.207958 0.214851 0.208002 0.208563 0.205173 0.213448 0.210712 0.214226 0.205496 0.207029 0.214611 0.2096 0.211315 0.208736 0.213417 0.209927 0.207546 0.211448 0.213741 0.219044 0.214193 0.211288 0.165527 -0.00710869 -0.0104065 -0.00378799 -0.00288582 -0.00374858 -0.00392628 0.00689697 0.134323 0.208633 0.206259 0.209829 0.209419 0.219307 0.201435 0.20759 0.210922 0.209192 0.210506 0.212591 0.214088 0.218224 0.214685 0.214489 0.216053 0.220123 0.215453 0.217941 0.213949 0.211493 0.221511 0.210321 0.213425 0.217112 0.202221 0.213297 0.206678 0.214916 0.144997 -0.00263977 -0.00165939 -0.00691605 -0.00292397 -0.00269508 0.00130081 -0.00765419 0.208627 0.211145 0.209959 0.212384 0.215195 0.206516 0.208004 0.211246 0.213352 0.211859 0.208225 0.211886 0.210332 0.209128 0.212265 0.213846 0.215195 0.209599 0.215172 0.218342 0.209877 0.209352 0.212879 0.21146 0.205555 0.209348 0.213636 0.206975 0.210243 -54.6075 0.0760345 0.00276311 0.00228596 0.00715446 0.0168114 -0.000267029 0.00997162 -0.0132904 0.203736 0.211066 0.214538 0.209089 0.211795 0.214598 0.216751 0.2141 0.217434 0.222374 0.206814 0.210419 0.206528 0.20998 -54.6075 -54.6075 0.207127 0.207829 0.2071 0.211903 0.217495 0.204865 0.214017 0.214281 0.208096 0.213134 0.222175 0.219463 0.220785 0.217421 0.00131035 -0.00571442 0.00184631 -0.002285 -0.00175858 -0.00504971 -0.000858307 -0.00204341 0.220596 0.214163 0.229736 0.232517 -54.6075 -54.6075 -54.6075 0.215826 0.217422 0.219395 0.225597 0.214409 0.224489 0.222811 0.216 0.213013 -54.6075 0.233791 0.216112 0.208464 0.216644 0.221277 0.207664 0.0100441 0.00836563 0.00120735 0.00364304 0.00517273 0.00630188 0.00684357 -0.00309753 0.00342751 -0.00332832 0.000408173 0.00566292 0.00522041 -0.00342178 0.00222778 -0.000196457 0.00397682 0.00582504 0.00138092 0.00265312 0.00442886 0.00316811 0.00427246 -0.00337219 -0.000699997 0.00142924 0.00505829 4.76837e-005 0.00451787 0.00530624 0.00372696 0.00457764 0.00391197
-0.0159016 -0.011097 -0.0100149 -0.00518036 -0.0182114 -0.0106068 -0.0124645 -0.010746 -0.00884247 -0.00491333 -0.0115089 -0.00870705 -0.0128517 -0.0101776 -0.0194283 -0.0131073 -0.0110455 -0.01231 -0.011343 -0.0169945 -0.00822258 -0.0125504 -0.0163593 -0.01371 -0.0120697 -0.0104828 -0.00227737 -0.0033137 -0.0100708 -0.0130959 -0.0112953 -0.0146217 0.0231094 0.20532 0.202574 0.213718 0.199799 0.198673 0.201041 0.205101 0.198507 0.1987 0.197615 0.203728 0.205369 0.206855 0.205315 0.205341 0.200966 0.204419 0.197784 0.203392 0.194416 0.206284 0.207912 0.129219 -0.0115128 -0.00805092 -0.0070343 -0.0105743 -0.0130081 -0.00405884 -0.010685 0.0483427 0.20867 0.203045 0.202324 0.201344 0.203377 0.203266 0.194937 0.200249 0.205161 0.204714 0.202312 0.207047 0.201183 0.199589 0.201292 0.202328 0.205099 0.208515 0.205286 0.205505 0.199015 0.211372 0.201574 0.207939 0.206863 0.204625 0.204185 0.203604 0.203476 0.0948105 0.0111389 -0.0015316 0.00220871 -0.000831604 -0.00111008 -0.00863743 -0.00366592 0.100979 0.207497 0.206633 0.208111 0.211361 0.212 0.200459 0.207924 0.210758 0.208413 0.201196 0.2038 0.201981 0.208366 0.20974 0.198135 0.210112 0.210083 0.215075 0.210428 0.219212 0.217535 0.215483 0.206038 0.197948 0.205137 0.210058 0.204762 0.210592 0.208996 0.183369 0.0026741 0.00111008 0.000741005 -0.00450897 -0.00477091 -0.00144577 -0.0110016 0.156927 0.211601 0.212475 0.209827 0.212337 0.210606 0.215408 0.212571 0.211674 0.214216 0.212542 0.215973 0.213745 0.212326 0.209274 0.215572 0.212616 0.21365 0.216075 0.217957 0.214005 0.224491 0.214378 0.215998 0.223618 0.21759 0.217093 0.218243 0.214734 0.219776 0.174248 0.00113805 -0.00879478 -0.0028801 -0.00357437 -0.00424576 0.00426102 0.0658595 0.213207 0.214731 0.210695 0.205402 0.212555 0.216862 -54.6075 0.208378 0.211884 0.211785 0.207651 0.218906 0.214226 0.213861 0.212605 0.219252 0.211906 -54.6075 -54.6075 0.210541 -54.6075 0.20787 0.211166 -54.6075 -54.6075 0.211128 0.207653 0.210028 -54.6075 -54.6075 0.0611668 -0.0059166 -0.00521469 -0.00268936 -0.0111008 0.00138474 -0.00734901 0.0920677 0.221077 0.222566 0.22744 0.212959 0.223955 0.221134 0.21405 0.221752 0.214977 0.215313 0.211252 0.21995 0.214085 0.208183 0.213568 -54.6075 0.207466 0.21818 0.215805 0.217781 -54.6075 0.218006 0.205212 0.215691 0.218447 0.211706 0.208143 0.2299 0.216156 0.217783 -54.6075 -0.000825882 -0.00209236 -54.6075 0.000244141 -0.00110435 -0.00233078 0.000747681 0.210251 0.207109 0.210205 -54.6075 -54.6075 0.21426 0.211841 0.216002 -54.6075 0.218021 0.21567 0.219425 0.218666 0.210175 0.210421 0.20793 -54.6075 0.212536 0.211234 0.219302 0.213039 0.215645 0.20844 -0.00423813 0.0132961 0.00277201 0.0103722 0.00828934 0.00313695 0.00716972 0.0175934 0.00424767 0.00619698 0.00254059 -7.50224e-005 0.00094986 0.00971222 0.00395393 0.00292587 0.00249672 -0.00304413 0.00449753 0.0080719 0.00475693 0.00620079 0.00607681 0.00894165 0.000614166 0.000423431 0.003582 0.00316238 0.00435638 0.00842667 -0.00112152 -0.00775146 -54.6075
-0.0130424 -0.0156021 -0.016304 -0.0125694 -0.0135956 -0.0128088 -0.0240402 -0.0102463 -0.0107231 -0.0146103 -0.00715256 -0.00811768 -0.0114574 -0.0098381 -0.00840378 -0.0081075 -0.0124283 -0.0146866 -0.00691986 -0.0044899 -0.0101442 -0.0113106 -0.0080471 -0.00762177 -0.00675329 -0.0033493 -0.0182114 -0.0160427 -0.019268 -0.0175991 -0.0117722 -0.00694529 -0.0118484 0.147066 0.200443 0.201645 0.201839 0.199669 0.20278 0.20536 0.203363 0.197559 0.203237 0.208099 0.201847 0.200233 0.189709 0.19993 0.193665 0.200497 0.192039 0.198057 0.204288 0.201936 0.2034 0.173286 -0.00491905 -0.00723457 -0.00843048 -0.00169373 -0.00724792 -0.0120182 -0.0054512 0.037714 0.207535 0.199528 0.2078 0.207767 0.214724 0.20673 0.205759 0.193857 0.202595 0.205799 0.203474 0.203773 0.199528 0.20349 0.195797 0.201351 0.205023 0.207535 0.203492 0.205929 0.205084 0.198471 0.199371 0.203104 0.196033 0.208706 0.198284 0.1961 0.2089 0.138863 -0.0105476 -0.00620079 -0.0110893 -0.00340271 -0.00290171 -0.00703812 -0.00236511 0.138231 0.203239 0.198761 0.203932 0.205292 0.205029 0.203587 0.207363 0.206011 0.208387 0.214439 0.21104 0.208566 0.215599 0.211559 0.213514 0.211029 0.210426 0.206787 0.205345 0.206247 0.209499 0.203747 0.202145 0.207638 0.200535 0.208668 0.203945 0.207479 0.212788 0.19899 -0.00568676 0.0014534 -0.000804901 0.00361443 -0.000282288 0.000450134 0.00379181 0.0885687 0.219501 0.21347 0.211725 0.211853 0.213739 0.212711 0.209259 0.221794 0.209133 0.213707 0.208588 0.210218 0.21556 0.210032 0.211106 0.205402 0.209883 0.213976 0.212051 0.208017 0.209381 0.215296 0.20997 0.208273 0.216938 0.216364 0.214558 0.216663 0.220932 0.189037 -0.00563431 0.00320625 -0.00598907 -0.00340271 -0.00382423 -0.00418282 -0.0016861 0.176025 0.214491 0.209879 0.219372 0.213797 0.210625 -54.6075 -54.6075 0.217316 0.206619 0.215061 0.203972 -54.6075 0.202534 0.223293 0.213839 0.212477 0.215281 0.218471 0.214912 -54.6075 -54.6075 0.205597 -54.6075 0.21674 0.223289 0.209793 -54.6075 -54.6075 -54.6075 0.0768604 0.00820923 -0.00348854 -0.00305812 -0.0153656 -0.00343323 0.00255203 0.00225258 0.173177 0.212347 0.21382 0.20903 0.212221 0.210965 0.211102 0.2087 0.214819 0.211046 0.20453 0.213144 0.211798 0.215004 0.21711 0.206665 0.218061 -54.6075 -54.6075 0.214127 0.208874 -54.6075 0.211117 0.217249 0.215008 0.221148 0.213486 0.221035 0.216402 0.224432 -0.00483322 0.00731277 -0.00323296 -0.00375366 -0.00221252 0.0101624 -54.6075 0.00371933 0.215517 -54.6075 -54.6075 0.21283 0.216644 0.227394 0.219002 0.215836 0.212349 0.221123 0.224619 0.220329 0.212917 0.209923 -54.6075 0.214333 -54.6075 0.209335 0.223532 0.227438 0.226173 0.223774 0.214798 -0.00866318 -0.000247955 0.00284004 0.0018816 0.00361633 0.00313187 0.00574017 0.00602341 0.00400639 0.00369835 0.00575066 -0.00160853 0.00210476 0.00191879 0.000510216 0.00592804 0.00619888 0.000658035 0.00331211 -0.00160885 0.00156021 0.00279999 0.00242996 0.00295067 0.00277583 0.00395775 -0.00297546 -0.00112025 -0.00160599 0.00350571 -0.00062561 0.00669861 0.00473785
-0.0222969 -0.0216827 -0.0145702 -0.010416 -0.0130374 -0.0165977 -0.00758362 -0.00960159 -0.00842476 -0.00851059 -0.0162182 -0.00580597 -0.0114479 -0.00917053 -0.0118523 -0.0124531 -0.00650024 -0.0127284 -0.0161934 -0.0107778 -0.0120811 -0.0122833 -0.00902557 -0.0131989 -0.00754166 -0.00997543 -0.0129395 -0.0132389 -0.00996399 -0.00599766 -0.0124092 -0.0154266 -0.0134773 0.15387 0.207352 0.196312 0.199308 0.200258 0.197369 0.195179 0.207569 0.199215 0.204193 0.204086 0.203005 0.198105 0.199809 0.206581 0.207897 0.196911 0.211117 0.199133 0.19945 0.20179 0.198978 0.172474 -0.0113106 -0.00886345 -0.00661469 -0.017952 -0.00814056 -0.0157204 -0.00656128 0.104549 0.200321 0.206188 0.201405 0.206959 0.20052 0.201729 0.204496 0.203144 0.210117 0.206459 0.202777 0.205213 0.193413 0.193609 0.201565 0.201129 0.199369 0.204021 0.192904 0.205109 0.201397 0.201193 0.203657 0.205211 0.198677 0.201506 0.202724 0.202927 0.203493 0.170429 -0.00330734 -0.00520134 -0.00088501 -0.0125504 -0.00682831 -0.0103073 -0.0143509 0.108778 0.207355 0.209614 0.206074 0.204973 0.198671 0.210175 0.203598 0.20562 0.200409 0.206046 0.200457 0.204414 0.21463 0.210997 0.207691 0.203234 0.200804 0.208197 0.209215 0.211349 0.207951 0.210323 0.210947 0.213642 0.21509 0.208227 0.212011 0.205194 0.205898 0.102226 -0.00863075 -0.015461 -0.00580788 -0.00738525 -0.00339127 -0.0010128 0.000190735 0.13737 0.209316 0.213065 0.207918 0.210388 0.207184 0.217411 0.214361 0.203403 0.206173 0.20901 0.212545 0.210028 0.209053 0.220066 0.208937 0.211983 0.211369 0.210035 0.2059 0.20737 0.215964 0.206253 0.217333 0.20623 0.209995 0.207745 0.225899 0.215025 0.204007 -0.00531387 0.00259781 -0.00228691 -0.00303141 0.00136948 -0.00421715 -0.00260544 -0.00571442 0.214863 -54.6075 0.208096 0.20887 0.221771 -54.6075 -54.6075 0.205517 -54.6075 0.220589 0.214642 -54.6075 0.218246 0.216991 0.217384 0.220394 0.212269 0.221455 0.211668 0.212294 0.206131 0.211599 0.208227 0.195709 0.209188 0.20277 -54.6075 0.210129 0.225388 -54.6075 0.0561129 0.00279617 0.00403595 -0.00037384 -54.6075 -54.6075 -54.6075 -54.6075 -54.6075 -54.6075 0.213577 0.202953 0.219866 0.213749 0.217842 0.226044 0.224346 0.22287 0.228104 0.219391 0.223629 0.223547 0.215149 0.204205 0.20961 0.21253 -54.6075 -54.6075 0.220177 0.211121 0.21966 0.215279 0.220757 0.214174 0.212011 0.220451 0.209499 0.214172 0.00403976 -0.000605583 0.000222206 -0.00817871 -54.6075 -54.6075 -54.6075 -0.00635656 -54.6075 -54.6075 0.257507 0.244196 0.239967 0.229046 0.244526 0.228794 0.218597 0.217268 0.219866 0.24316 0.229759 0.232761 0.223564 0.227966 -54.6075 -54.6075 0.229198 0.24238 0.251625 0.246519 0.245741 0.00579071 0.000831604 -54.6075 0.00488663 -0.00548553 0.00204468 0.0057888 0.00282669 0.00376701 0.00842476 0.00354004 0.00781059 0.00276566 0.00791931 0.00117111 0.00113487 0.00201797 0.000579834 -0.00435638 0.0033989 0.00837708 0.00432587 0.00510216 0.00615692 0.0038236 0.00301456 0.00317764 0.00953929 0.00282923 0.00424576 -0.0021553 -0.00112247 -0.000595093
-0.0150452 -0.0118065 -0.0133197 -0.0120468 -0.019001 -0.0162621 -0.0182648 -0.00991917 -0.00273895 -0.01091 -0.00709915 -0.00629425 -0.0119705 -0.0191803 -0.00856209 -0.029129 -0.00928497 -0.00841522 -0.00968933 -0.0133419 -0.0133896 -0.00618744 -0.0105724 -0.00989151 -0.0117207 -0.00634766 -0.0132256 -0.0048542 -0.0134811 -0.00598335 -0.0175018 -0.0149288 -0.0141258 0.105418 0.200951 0.198683 0.200226 0.204874 0.198013 0.196917 0.198943 0.203342 0.198553 0.195545 0.203094 0.206993 0.202209 0.1992 0.203617 0.195839 0.202391 0.208267 0.194614 0.201963 0.203259 0.19796 -0.0124512 -0.00458527 -0.00807571 -0.0111351 -0.00549316 -0.0118465 -0.00440979 0.0533419 0.207561 0.203234 0.20108 0.210129 0.205963 0.200579 0.203934 0.20702 0.210293 0.2075 0.209919 0.203705 0.205257 0.197561 0.210609 0.207951 0.213844 0.208044 0.207043 0.207331 0.198608 0.21246 0.220436 0.206333 0.201645 0.202747 0.200272 0.201788 0.238905 -0.00227928 -0.0113411 -0.00609589 -0.00670242 -0.00894165 -0.00830269 -0.0100555 -0.00386333 0.0579058 0.204905 0.199932 0.200994 0.250839 0.241604 0.210934 0.207699 0.205046 0.207817 0.210594 -54.6075 0.21516 0.200344 0.213799 0.213684 0.207016 0.205822 -54.6075 0.254082 0.215469 0.217491 0.21287 0.210457 0.206257 -54.6075 0.198666 0.216293 0.221302 0.2096 -0.0216522 0.000579834 -0.010849 -0.00907993 -0.0053587 -0.000181198 -0.00116539 -0.000946045 0.115089 0.210552 -54.6075 -54.6075 -54.6075 0.296806 0.265314 0.228073 0.217705 0.216534 0.212566 -54.6075 -54.6075 -54.6075 -54.6075 0.286739 0.232101 0.238064 0.215628 -54.6075 -54.6075 -54.6075 -54.6075 0.313862 -54.6075 0.251247 0.266325 0.224594 0.224728 0.229 -0.000534058 -0.00117111 0.00183105 -0.00845146 0.00416565 0.000465393 -0.00244141 -54.6075 -54.6075 -54.6075 -54.6075 -54.6075 -54.6075 -54.6075 -54.6075 0.3036 -54.6075 0.322945 -54.6075 0.262371 0.245018 -54.6075 -54.6075 -54.6075 -54.6075 0.304886 0.296188 0.29664 0.299335 0.298901 0.291262 0.333694 -54.6075 0.270599 -54.6075 0.266956 -54.6075 0.272503 0.00804901 -0.00179291 -0.0036335 0.0030632 -0.00582123 -54.6075 -54.6075 -54.6075 -54.6075 0.301207 0.302597 0.293865 0.297375 0.293079 -54.6075 -54.6075 -54.6075 -54.6075 -54.6075 -54.6075 -54.6075 -54.6075 0.309677 0.305695 0.299122 0.298344 0.298174 -54.6075 -54.6075 0.303839 0.301109 0.310448 0.345715 0.346882 0.35046 0.358963 0.356316 0.347294 -54.6075 -54.6075 -0.0120049 -0.0134315 -54.6075 -54.6075 -54.6075 -54.6075 -54.6075 -54.6075 -54.6075 -54.6075 -54.6075 0.300144 -54.6075 -54.6075 -54.6075 -54.6075 0.315266 0.317871 0.31596 0.339645 0.323067 -54.6075 -54.6075 0.29948 0.333282 -54.6075 -54.6075 -54.6075 0.302956 0.00431442 0.00165176 -0.00475502 -54.6075 -0.00351715 -54.6075 0.0037365 0.00495911 0.000400543 0.000951767 0.00288391 0.000315348 0.00490189 0.0118599 0.00280952 0.00318336 0.00185204 0.00911713 0.00746346 0.00742531 0.00410843 -0.00174904 0.00123978 0.000904083 0.000375748 0.00757027 0.0103149 0.00891685 0.00551033 -0.000595093 0.00717545 0.00548172 0.000473022
-0.0129013 -0.0188764 -0.0123291 -0.00891876 -0.00115967 -0.00375748 -0.0154597 -0.0201225 -0.0175247 -0.0173893 -0.0210724 -0.0121956 -0.0130672 -0.0132599 -0.0136528 -0.0150604 -0.00713539 -0.010128 -0.00802994 -0.0138206 -0.0187168 -0.010067 -0.01297 -0.0121841 -0.0158253 -0.0186691 -0.00958506 -0.0156097 -0.0157776 -0.0105 -0.0123901 -0.00521564 -0.00967026 0.131588 0.205078 -54.6075 -54.6075 0.269073 0.241753 0.206535 -54.6075 -54.6075 0.317871 -54.6075 0.207296 -54.6075 -54.6075 0.288631 0.288921 0.268173 0.212769 -54.6075 -54.6075 0.329353 0.279015 -54.6075 -0.00866318 -0.0118828 -0.00592804 -0.0113678 -0.0160141 -0.00846481 -0.00990677 0.0564232 0.296562 0.2892 0.268059 -54.6075 0.283031 0.286945 0.283403 0.282459 0.274549 -54.6075 -54.6075 -54.6075 -54.6075 0.303818 0.293768 0.263153 0.274815 0.284306 0.281992 0.273067 0.283415 0.272694 0.285179 -54.6075 -54.6075 -54.6075 0.26635 0.382488 -54.6075 -54.6075 -0.00163651 -0.0120201 0.00152397 -0.0116367 -0.00146961 -0.00930023 -0.0127621 0.175515 0.285255 0.293287 0.28817 0.285515 -54.6075 0.304197 0.300051 0.346714 0.345198 0.34306 0.263817 -54.6075 -54.6075 0.313869 0.297241 0.286795 0.286179 0.281237 -54.6075 0.28933 0.288719 0.298899 0.320316 -54.6075 -54.6075 -54.6075 -54.6075 -54.6075 -54.6075 -0.00505829 -0.00512123 -0.00235748 -0.0071106 -0.00489426 -0.010273 -0.00756454 -0.00232697 0.223389 0.294268 0.295883 0.298424 0.298473 -54.6075 0.304016 0.30547 0.333708 0.35239 0.344017 0.333881 0.340765 0.32695 0.331536 0.29726 0.296022 0.307568 0.299841 0.307941 0.295177 0.29648 0.304174 0.305735 0.338564 -54.6075 -54.6075 0.393299 0.393936 0.351868 0.00473022 0.00458527 -0.0039959 0.000921249 -0.00207138 -0.0086813 -54.6075 0.0624352 -54.6075 -54.6075 -54.6075 0.304016 -54.6075 -54.6075 -54.6075 0.303436 0.352665 -54.6075 -54.6075 -54.6075 -54.6075 -54.6075 0.314327 0.31035 0.343853 -54.6075 -54.6075 -54.6075 -54.6075 -54.6075 0.296101 0.316776 0.444885 -54.6075 -54.6075 -54.6075 -54.6075 0.260189 -54.6075 -54.6075 -54.6075 -54.6075 -0.00137711 0.00112915 -0.000746409 -54.6075 -54.6075 0.296623 -54.6075 -54.6075 -54.6075 -54.6075 0.289459 0.298555 0.38763 0.378073 0.395786 0.387815 0.38032 0.388348 0.332932 0.303154 0.313248 -54.6075 0.340708 -54.6075 -54.6075 -54.6075 -54.6075 -54.6075 -54.6075 -54.6075 -54.6075 -54.6075 -54.6075 0.349232 -54.6075 -54.6075 -54.6075 -54.6075 -54.6075 -54.6075 -54.6075 -54.6075 -54.6075 -54.6075 -54.6075 -54.6075 0.374095 0.301628 0.346678 -54.6075 -54.6075 -54.6075 0.321514 0.31673 0.311125 0.378081 0.387276 0.379684 -54.6075 0.317551 0.381086 -54.6075 -54.6075 -54.6075 0.351074 -0.00151443 0.0015316 0.00327873 0.00100581 0.00125122 -54.6075 4.76837e-006 -0.00127411 0.00602627 0.00362301 0.00255775 0.00359472 -0.000430107 0.00242043 0.000923157 0.0074501 0.00612164 0.00378418 0.00282288 -0.00123596 0.00156403 0.000713348 0.00173823 0.000577927 0.000269572 0.0022138 0.00211143 0.00063324 0.00164986 0.00613403 0.00602722 0.00252914 0.00719833
-0.013052 -0.0145073 -0.00868988 -0.0210724 -0.00720342 -0.00513649 -0.0088768 -0.01157 -0.00518417 -0.011467 -0.0115204 -0.00496101 -0.0114288 -0.0150642 -0.0124944 -0.00822067 -0.0146217 -0.00896835 -0.00934219 -0.0132662 -0.0209236 -0.00279617 -0.00325775 -0.00346375 -0.00705337 -0.0114193 -0.0118523 -0.00737762 -0.00732231 -0.00992203 -0.00525093 0.00119019 0.0999546 0.197853 0.294487 0.296501 0.299892 0.320713 0.313427 0.283485 0.336447 0.366991 -54.6075 0.377884 0.305511 0.295069 0.286694 0.30393 0.295341 0.293009 0.287872 0.343565 0.366043 0.369883 -54.6075 -54.6075 -0.0146523 -0.00726891 -0.00707245 -0.00832176 -0.0189629 -0.0106726 -0.00570297 0.0936995 0.29665 0.387833 0.321716 0.295387 0.287498 -54.6075 0.311256 0.322323 -54.6075 -54.6075 -54.6075 -54.6075 -54.6075 -54.6075 0.296134 0.292257 0.292103 0.358116 0.352657 0.347944 0.332062 0.32103 0.276627 0.33478 -54.6075 -54.6075 0.404373 -54.6075 -54.6075 -54.6075 -0.000963211 -0.00345993 -0.00944519 0.00489044 -0.0049057 0.00533676 -0.00223732 0.162984 0.290684 -54.6075 0.340603 0.425537 0.39872 0.353348 0.316004 0.356255 0.342825 0.343399 -54.6075 -54.6075 -54.6075 0.325703 0.307274 0.301884 0.35701 0.354286 0.345209 0.342987 0.367855 0.336033 0.314331 -54.6075 -54.6075 -54.6075 0.497108 -54.6075 -54.6075 -0.00850677 0.00790024 -0.000902176 -0.00512695 0.000616074 0.0183258 -0.000898361 -0.000757217 0.178191 0.295691 0.380505 -54.6075 0.367659 0.355629 0.371382 0.35099 0.334621 0.376127 0.357334 0.386711 0.403969 0.364326 0.347485 0.310246 0.301611 0.312019 0.336472 0.324627 0.349234 0.373871 0.355771 0.33548 0.393135 0.393024 0.3957 0.391895 0.373245 0.418579 -0.00117111 0.00229645 -0.00113805 -0.00144863 -0.00550652 0.00123978 -54.6075 -0.00785065 0.239901 -54.6075 -54.6075 0.36578 -54.6075 0.384796 0.374578 0.297289 -54.6075 -54.6075 -54.6075 -54.6075 -54.6075 -54.6075 0.340189 -54.6075 0.317577 -54.6075 -54.6075 -54.6075 0.533079 0.519341 -54.6075 0.30825 -54.6075 -54.6075 -54.6075 -54.6075 -54.6075 -54.6075 0.1099 0.00299072 0.00261688 0.00216166 -0.00761414 0.00257301 0.00492668 0.0673084 0.308309 -54.6075 -54.6075 -54.6075 -54.6075 -54.6075 0.30899 0.287159 0.362816 0.388467 0.383802 0.380227 0.386858 0.392048 0.328728 0.299349 0.313425 -54.6075 -54.6075 -54.6075 -54.6075 -54.6075 0.31147 -54.6075 -54.6075 0.57695 -54.6075 -54.6075 0.522995 0.3563 0.00849152 -54.6075 -54.6075 -54.6075 -0.00309753 -54.6075 -54.6075 0.00815201 0.305672 -54.6075 -54.6075 -54.6075 0.389004 0.300156 0.431723 0.518629 -54.6075 -54.6075 0.335468 0.311478 0.30866 0.414534 0.382843 0.412857 0.386875 0.311642 0.394463 0.642097 0.65274 0.656328 0.371353 -0.00733948 0.00239372 -8.7738e-005 0.00136185 0.00601196 -0.00377846 -54.6075 -54.6075 0.000240326 0.00128555 0.00403595 0.00757027 0.0079422 0.00118637 0.00404549 0.00810814 0.00128365 0.00485229 0.00130844 0.00947571 0.00164795 0.0049839 0.00900904 -0.00254822 0.00600688 -0.000364939 0.0104828 -0.000471751 0.00534821 -0.0032196 0.00713634 0.00191402 0.00432968
-0.0123825 -0.00875092 -0.00836182 -0.00563049 -0.0130577 -0.0111275 -0.0141239 -0.0135307 -0.0167637 -0.0124296 -0.00657272 -0.0115337 -0.0155334 -0.0135746 -0.0131874 -0.00969315 -0.00549316 -0.0118294 -0.0122852 -0.0108414 -0.0181198 -0.00747108 -0.0152473 -0.00876745 -0.00924301 -0.00499725 -0.00354385 -0.0077095 -0.00648975 -0.0153313 -0.0199509 -0.014576 -0.00833893 0.195436 0.286856 0.314117 0.310364 0.326372 0.32756 0.316706 0.321255 0.373166 0.374104 0.371483 0.301117 0.293327 0.333827 0.302956 0.323627 0.312799 0.294624 0.333712 0.358359 0.362247 0.37067 -54.6075 -0.0129128 -0.0107937 -0.0126495 -0.00806936 -0.0130291 -0.00704575 0.00137711 0.0542679 0.294025 -54.6075 -54.6075 -54.6075 -54.6075 0.373857 0.317841 0.305929 -54.6075 -54.6075 -54.6075 -54.6075 -54.6075 -54.6075 0.303715 0.288158 0.335749 0.357297 0.373871 0.341297 0.346859 0.338869 0.282051 0.317207 -54.6075 0.526993 0.517105 0.532219 -54.6075 -54.6075 -0.00555706 -0.00591469 -0.00505447 -0.00758743 -0.00785446 -0.00550079 -0.00611369 0.129102 0.380747 -54.6075 0.440512 0.490135 0.373232 0.372421 0.305762 0.344863 0.341515 0.337986 -54.6075 -54.6075 -54.6075 0.320621 0.305317 0.299879 0.353699 0.347212 0.344893 0.3535 0.363178 0.355263 0.316103 -54.6075 -54.6075 -54.6075 0.500852 0.521738 -54.6075 -0.0043869 -0.0109787 -0.0105019 -0.0111961 -0.0067234 -0.00704575 -0.00532532 -0.00690842 0.237564 0.301369 0.514744 0.625443 0.371117 0.37174 0.354134 -54.6075 0.342842 0.383801 0.371791 0.358079 0.406898 0.367943 0.344206 0.304173 0.301826 -54.6075 0.334179 0.338928 0.370595 0.381605 0.346579 0.373833 0.38728 0.401657 0.406635 -54.6075 0.5268 0.497601 0.00245094 -7.62939e-005 -0.00484467 -0.00364304 -54.6075 -54.6075 -0.00962448 -0.00373459 0.182199 0.363742 -54.6075 -54.6075 0.379566 0.369444 0.37812 0.522545 0.530756 0.645218 0.652018 0.668987 0.636463 0.637756 -54.6075 0.30051 0.634743 -54.6075 0.643921 0.539734 -54.6075 0.546856 0.311066 0.453617 0.645603 -54.6075 -54.6075 -54.6075 -54.6075 -54.6075 -0.00785828 -0.0111313 -0.0105171 -0.000505447 -0.00333405 -0.00144386 0.00716019 -54.6075 0.305359 0.631485 0.679771 0.640659 -54.6075 -54.6075 -54.6075 0.289299 0.380842 0.380886 -54.6075 0.387901 0.390514 0.397556 0.322006 0.305439 0.311455 -54.6075 0.324722 0.615009 -54.6075 -54.6075 0.329041 0.453661 0.555943 -54.6075 -54.6075 -54.6075 -54.6075 -54.6075 -54.6075 -54.6075 0.00139618 -0.00602341 0.00775146 -0.00592422 -0.0103416 -0.00133896 0.30947 0.544735 0.590757 0.412518 0.356304 -54.6075 0.433279 0.587923 -54.6075 -54.6075 0.344259 0.314764 0.314468 0.402708 0.408783 0.413185 0.375217 -54.6075 0.376318 0.688349 0.648808 0.653297 0.41642 0.00252151 -0.00112724 -0.00103378 0.00100962 0.00305939 -0.00133769 -0.000263214 -54.6075 -0.00756454 0.00925446 0.0056839 -0.00553258 -0.00321325 -0.00192261 0.000108719 0.00417137 0.00284767 0.00452805 0.00885963 -0.00414658 0.0105133 0.00285149 0.000343323 -0.000896454 -0.00191689 0.00338936 -0.000843048 0.0075264 -0.000476837 -0.00157547 0.000286102 0.00409126 0.00506973
-0.0199356 -0.0135078 -0.0112228 -0.0124067 -0.012394 -0.0209846 -0.013876 -0.00562668 -0.00163078 -0.00801086 -0.0126534 -0.00889587 -0.00845337 -0.0151424 -0.001297 -0.0106659 -0.0156746 -0.00466919 -0.00973892 -0.00360107 -0.00577927 -0.00433731 -0.00940323 -0.00935618 -0.0139999 -0.0189629 -0.00920486 -0.00350189 -0.0110817 -0.00283051 -0.00991631 -0.00947952 -0.00583649 0.252399 0.286621 0.30772 0.318596 0.322601 0.329376 0.323952 0.326605 0.37211 0.378716 0.374611 0.306182 0.292519 0.320574 0.323349 0.308168 0.322453 0.293316 0.32715 0.34362 0.351734 0.353832 -54.6075 -0.00139809 -0.00225449 -0.0108274 -0.0108452 -0.0108776 -0.00368118 -0.0096283 0.0268372 0.406938 -54.6075 0.589458 0.602261 -54.6075 0.367786 0.333134 0.320072 -54.6075 -54.6075 -54.6075 -54.6075 -54.6075 0.328011 0.291317 0.284225 0.317327 0.36832 0.345108 0.34977 0.351311 0.35063 0.297344 0.326084 -54.6075 0.515656 0.503883 0.520313 -54.6075 -54.6075 -0.0101452 -0.0128059 -0.00789261 -0.011528 -0.00349045 -0.00933329 -0.0099411 0.186723 0.506007 -54.6075 0.439239 0.581142 0.356976 0.367336 0.325798 0.329142 0.338814 0.34079 -54.6075 -54.6075 -54.6075 0.31348 0.30286 0.300707 0.357695 0.346157 0.354431 0.353344 0.354803 0.365128 0.317719 -54.6075 -54.6075 -54.6075 0.475935 0.503174 -54.6075 0.00104141 -0.00819397 -0.00298023 -0.00437164 -0.0030632 0.000360489 -0.000732422 -54.6075 0.474449 -54.6075 0.577347 0.622982 0.370636 0.370277 -54.6075 -54.6075 -54.6075 -54.6075 0.405136 -54.6075 -54.6075 -54.6075 0.335735 0.307058 0.302383 -54.6075 0.380007 0.356014 0.380627 0.397217 0.335248 0.392235 0.394676 0.406263 0.407455 -54.6075 0.452169 -54.6075 0.00147629 0.00180817 0.00226593 0.00293732 -54.6075 -54.6075 -0.00584888 -0.00578117 0.160605 -54.6075 -54.6075 0.381561 0.382366 0.383738 0.3764 0.29821 0.686577 0.645386 0.648764 0.703819 0.632534 0.655666 0.339472 0.310211 0.310936 -54.6075 0.59491 0.5294 0.501082 0.510326 0.316818 0.299717 0.650707 -54.6075 -54.6075 -54.6075 -54.6075 -54.6075 0.00610352 0.00563049 0.007061 -0.00262451 -54.6075 0.000137329 -6.86646e-005 -54.6075 -54.6075 0.631278 0.682728 0.297182 0.370811 -54.6075 0.306924 -54.6075 -54.6075 0.339746 0.346863 0.344398 0.399385 0.340412 0.329725 0.311136 0.321148 0.337368 0.35363 -54.6075 0.345047 0.298691 0.324116 0.308662 -54.6075 0.557892 0.569351 0.591681 0.550426 0.350071 -54.6075 0.00141907 -0.00451851 -0.000274658 0.00430298 0.00524521 -0.00549698 -0.00430489 0.31078 0.584529 0.535794 0.33113 0.379801 -54.6075 -54.6075 0.575115 -54.6075 -54.6075 0.360268 0.319683 0.311457 0.350215 0.368563 -54.6075 0.359701 0.312462 0.371481 0.516212 0.508425 0.505037 0.388142 0.00785065 0.00473976 0.00371552 0.00374349 -0.000801086 0.00747045 0.00202179 0.0136681 0.00186157 0.00268555 -0.00975037 0.00172806 0.00044632 0.00349045 0.000886917 0.0040493 0.000582695 0.00304413 0.00504112 0.00381565 0.000663757 0.000878334 0.0025088 0.00172615 0.000862122 0.00292587 -0.0106926 0.003479 -0.00392914 -0.00781631 -0.00546455 -0.00264359 -0.00675583
-0.0153503 -0.0165596 -0.0058918 0.00258636 -0.00383377 -0.0117836 -0.00589244 -0.0148239 -0.0155964 -0.0183563 -0.0114098 -0.0109685 -0.0169907 -0.0051899 -0.011982 -0.010603 -0.0142428 -0.0158386 -0.0126095 -0.0119743 -0.0168819 -0.0124645 -0.00815582 -0.00564766 -0.0135002 -0.00640488 -0.013155 -0.0149097 -0.00180435 -0.0121918 -0.00899601 -0.00847435 -0.0114555 0.24307 0.29797 0.310436 0.327309 0.323895 0.332016 0.333992 0.350363 0.370146 0.37215 0.348797 0.302387 0.318392 0.309387 0.311852 0.324885 0.329361 0.314037 0.340055 0.373043 0.358643 0.371758 -54.6075 0.00425847 -0.00889778 -0.00876045 -0.00592041 -0.0089817 -0.0122223 -0.00786463 0.177242 0.496903 0.52223 0.579033 0.463308 0.295238 0.362755 0.328047 0.309616 -54.6075 -54.6075 -54.6075 -54.6075 -54.6075 0.345108 0.291981 0.29705 0.309968 0.350209 0.355558 0.363133 0.364956 0.34008 0.285114 0.323471 -54.6075 0.439098 0.492798 0.514355 -54.6075 -54.6075 -0.00389481 -0.00836182 -0.00519689 -0.00899887 -0.00800323 -0.00959778 -0.00976181 0.138257 0.459601 0.407047 0.425779 0.465149 0.321116 0.349256 0.304445 0.338951 0.356075 0.366249 0.43425 -54.6075 -54.6075 -54.6075 0.299419 0.302855 0.332287 0.317917 0.330164 0.33709 0.341957 0.348461 0.319529 0.410286 0.418482 0.41927 0.477757 0.515589 -54.6075 0.00392723 -0.00751877 0.0013485 -0.00164795 -0.00823021 -0.00481033 -54.6075 -0.0129662 0.0303059 -54.6075 0.453889 0.598175 0.377048 -54.6075 -54.6075 -54.6075 -54.6075 0.334209 -54.6075 0.326271 0.348223 0.352524 0.34412 0.312084 0.436726 0.309002 -54.6075 0.307729 0.334143 -54.6075 -54.6075 0.342861 0.363474 0.379144 -54.6075 -54.6075 0.423926 0.399484 0.0014801 -0.0036087 -0.00413513 0.00211716 -0.0120468 -0.0131874 -0.00731468 -0.0056839 0.242171 0.335996 0.321966 0.33775 0.355317 0.331538 0.376818 -54.6075 0.436275 0.493747 0.575115 0.544543 0.401425 0.482468 0.334955 0.299374 -54.6075 0.360799 0.341961 0.368341 0.436913 0.506655 0.291946 0.49087 0.335608 0.306938 0.362802 0.361706 0.354092 -54.6075 0.00660706 -0.0140762 -54.6075 -54.6075 -54.6075 -54.6075 -54.6075 0.0334988 -54.6075 0.288586 -54.6075 0.686661 -54.6075 0.304127 0.310246 0.295544 0.305023 0.311415 0.319439 0.312454 0.320562 0.310192 0.325293 0.304895 0.305468 0.302074 0.301315 0.307522 0.382058 0.427924 0.308115 0.392639 0.375962 0.388227 0.33442 0.390981 0.335312 -54.6075 0.00308228 0.00302505 0.00151634 -0.000352859 0.000200272 0.00458527 -0.000152588 -0.00331497 0.30545 0.423479 0.513456 0.422449 0.307056 0.305008 0.350355 0.351239 0.351118 0.356401 0.338971 0.316742 0.309986 0.309417 0.304117 -54.6075 0.325962 0.324947 0.319849 0.53095 0.537704 0.539026 0.321117 -0.001091 0.00174713 0.00427055 0.00621414 0.0050354 0.00156403 -0.00298309 0.0051384 0.00419044 0.00063324 0.00584793 -0.00318146 -54.6075 -0.00536728 -0.00300789 -0.00173759 0.00333786 -0.000724792 0.00623131 0.000617981 0.00354004 0.00481987 0.000530243 0.00468445 0.00700251 0.00762304 0.00449371 0.00384903 0.00501633 -0.0021553 0.00442314 0.0043335 0.00571823
-0.00859547 -0.00767326 -0.0055275 -0.0150547 -0.0085907 -0.0116056 -0.0060463 -0.0126762 -0.00243568 -0.0116119 -0.010273 -0.0187492 -0.00695038 -0.0135651 -0.0151711 -0.00666682 -0.00514221 -0.0173073 -0.0179202 -0.0106487 -0.0093867 -0.0133553 -0.0129128 -0.0129496 -0.00526619 -0.0137355 -0.0152016 -0.0117798 -0.019722 -0.0091095 -0.00744629 -0.0106049 -0.00586128 0.20671 0.309984 0.298442 0.309074 0.30227 0.276787 0.290575 0.337049 0.337072 0.34857 0.359549 0.29467 0.29245 0.30867 0.311365 0.304525 0.290741 0.298416 0.324206 0.343429 0.364408 0.367414 0.0903473 -0.00679779 -0.00207138 -0.0026741 0.000164032 -0.00488917 -0.00383186 -0.0126438 0.135914 0.444094 0.432308 0.502698 0.382084 0.304939 0.312428 0.288437 0.303705 0.355614 0.338456 0.355606 0.334059 0.381625 0.341423 0.296104 0.299366 0.300816 0.283859 0.290565 0.28775 0.288055 0.28491 0.285534 0.328328 0.366388 0.366808 0.382452 0.396757 0.336813 -54.6075 0.001489 -0.00686836 0.00116603 -0.000911713 -0.00281143 -0.000963211 -0.0043335 0.125978 0.352867 0.297203 0.336452 0.399511 0.302124 0.30294 0.298208 0.29763 0.319935 0.323289 0.334679 0.343544 0.364759 0.342344 0.309448 0.29596 0.311789 0.303452 0.309023 0.306042 0.302078 0.299507 0.300647 0.350065 0.327801 0.3359 0.3616 0.416904 0.391304 -0.0078125 -0.00143051 -0.00341415 -0.00542068 -0.00410843 -0.0115318 -54.6075 -0.00761795 0.339527 0.307531 0.30481 0.504603 -54.6075 -54.6075 -54.6075 0.286364 0.317411 0.311696 0.315887 0.299664 0.309105 0.304562 0.311794 0.300434 0.302128 0.299687 -54.6075 -54.6075 -54.6075 -54.6075 -54.6075 -54.6075 -54.6075 0.304356 -54.6075 0.329069 0.423934 0.458355 0.00338173 -0.00240707 -0.000425339 -54.6075 -54.6075 -0.00910568 0.00369263 -0.0102844 0.200728 0.293154 0.302578 0.297466 0.298607 0.312866 0.298222 -54.6075 -54.6075 0.414131 0.637335 0.470771 0.342056 0.497177 0.323139 0.30529 0.302666 0.311913 0.312162 0.304999 0.296889 0.292042 -54.6075 0.610661 0.330187 0.347847 0.334351 0.325123 -54.6075 -54.6075 -54.6075 -0.00719833 0.00690842 -0.00819016 -54.6075 -54.6075 -54.6075 -54.6075 0.00581741 -54.6075 0.659721 -54.6075 -54.6075 0.289673 0.289726 0.298016 0.310049 0.328913 0.33012 0.321251 0.31012 0.311676 0.317965 0.310734 0.29258 0.30004 0.29352 0.29414 0.376267 0.44825 0.305737 0.302265 -54.6075 -54.6075 -54.6075 -54.6075 -54.6075 -54.6075 0.0030899 0.00351334 -0.00122833 -0.00223923 -54.6075 -54.6075 -54.6075 -54.6075 0.309483 -54.6075 -54.6075 -54.6075 -54.6075 0.301971 0.326241 0.349436 0.335522 0.340494 0.344994 0.310005 0.304076 -54.6075 -54.6075 -54.6075 0.310532 0.307869 0.341192 0.467742 0.35574 0.361052 0.344836 0.012043 -0.00687663 0.00214259 0.00465202 0.00618362 -0.00155767 0.00367355 -0.00389481 -0.0020504 -0.00165939 0.00502777 0.00297165 -0.000261307 -54.6075 -0.00416183 -0.00608826 0.00448418 0.00583649 -8.96454e-005 0.00126839 0.00821686 0.00317764 0.00197983 0.00484467 0.000616074 0.000511169 0.00128555 0.00275993 -0.00253677 -0.00224304 -0.00218391 0.00572586 0.00063324
0.00224304 0.0012207 -0.00825882 -0.0130978 -0.0140076 -0.0140591 -0.00998688 -0.0129967 -0.0112762 -0.0115147 -0.0102386 0.00164032 -0.0113831 -0.00993443 -0.0149155 -0.0160885 -0.0136833 -0.0142581 -0.0149078 -0.0150757 -0.00872612 -0.00940704 -0.0152245 -0.0163174 -0.0175896 -0.0110435 -0.0110817 -0.0111707 -0.00836563 -0.0106831 -0.00217819 -0.0161819 -0.0120144 0.224886 0.296733 0.296131 0.291332 0.299942 0.296528 0.303193 -54.6075 0.331945 0.306908 0.304512 0.310461 0.298462 0.29627 0.295265 0.311895 0.299957 0.292569 -54.6075 0.335344 0.298504 0.304222 -54.6075 -0.0187874 -0.00846863 -0.0113996 -0.00318718 -0.0102501 -0.0100632 -0.0042572 0.122785 0.428732 0.295132 0.384322 0.399094 0.280296 0.28265 0.287624 0.296323 0.294971 0.325523 0.341438 0.319962 0.300121 0.306613 0.302856 0.314415 0.261543 0.297756 0.290737 0.291862 -54.6075 0.27507 0.28801 0.285774 0.277607 0.284542 0.27985 0.282537 0.282257 0.0437775 -0.00534439 -0.00439072 -0.00638008 -0.00986671 -0.00444412 -0.00977898 -0.00424004 0.132031 0.290409 0.321449 0.301117 0.297729 0.300566 0.29982 0.294844 0.304743 0.319443 0.37022 0.351948 0.319809 0.328072 0.331432 0.310608 0.297285 0.31245 0.288502 0.292837 0.29586 0.301838 -54.6075 0.305252 0.341364 0.348846 0.340342 0.347967 0.354668 0.34103 0.0199661 -0.0130882 -0.00927258 -0.00598145 -54.6075 0.00195694 -0.00563049 -0.0030117 0.192254 0.303516 0.312531 0.304783 0.289896 0.299316 0.292572 0.300913 0.336071 0.330776 0.349976 0.371635 0.378775 0.38335 0.379631 0.310463 0.298111 -54.6075 -54.6075 -54.6075 0.302773 0.290627 0.291084 -54.6075 -54.6075 0.340176 0.343086 -54.6075 -54.6075 -54.6075 0.0125084 -0.00219154 -0.0141296 -0.00840378 -0.00266266 -0.0104065 -0.0127233 -0.00748062 0.150445 0.299988 0.298477 0.300186 0.298939 0.311562 0.305614 0.302502 0.300991 0.374874 -54.6075 -54.6075 -54.6075 -54.6075 0.332596 0.301201 0.298515 0.373093 0.316078 -54.6075 -54.6075 -54.6075 -54.6075 0.291687 0.320251 0.347363 -54.6075 0.342072 -54.6075 -54.6075 -54.6075 -0.000125885 -0.00720596 -0.00227356 -0.00280952 -54.6075 -0.00038147 -0.00662994 0.00171661 -54.6075 -54.6075 -54.6075 -54.6075 0.354221 0.384319 0.331192 0.314186 0.358887 0.321911 0.378731 0.350214 0.347645 0.337285 0.303343 0.299152 0.291889 0.30789 0.366726 0.34866 -54.6075 0.371098 0.361551 0.506271 0.456419 -54.6075 -54.6075 -54.6075 0.38686 0.00555801 0.0011158 -0.00253677 -54.6075 -0.00340271 -54.6075 -54.6075 -0.000526428 0.308239 -54.6075 -54.6075 0.420403 0.377991 0.294258 0.335594 0.372073 0.352104 0.351097 0.348854 0.317566 -54.6075 -54.6075 -54.6075 -54.6075 0.332037 0.316578 0.395103 -54.6075 -54.6075 -54.6075 0.395166 -0.000593185 -0.00144831 0.000984192 0.00227451 -0.00333786 0.00534185 -0.00101185 0.00275803 0.00345325 0.000848134 -0.000307083 -0.00190735 0.00273895 -0.00044632 -0.0063769 -54.6075 -0.000297546 -0.000728607 -0.000331879 0.00073719 0.00460434 0.00309563 0.00103951 0.000411987 0.00629044 0.00418727 0.00654602 0.00424004 -0.00340907 -0.00256348 -0.00300217 -0.0037899 -0.00609589
-0.0182991 -0.0339584 -0.0191205 -0.0102043 -0.0184326 -0.0083847 -0.0106316 -0.0153046 -0.0159798 -0.0199699 -0.00907707 -0.0159378 -0.0103874 -0.0161972 5.72205e-005 -0.019453 -0.0187721 -0.00727336 6.10352e-005 -0.00471115 -0.0134048 -0.014164 -0.00682576 -0.0190163 -0.00592041 -0.0143204 -0.0176544 -0.00792567 0.00118256 0.000663757 0.000133514 -0.0100924 -0.00873566 0.148342 0.331539 0.327213 0.301205 0.291075 0.295055 0.332432 0.371095 0.377472 0.37925 0.366058 0.292225 0.29714 0.30843 0.279659 0.292643 0.321007 0.304188 0.374734 0.373798 0.379452 0.325909 -54.6075 -0.00908089 -0.0125732 -0.00755183 -0.0157509 -0.0197163 -0.0108757 -0.0105158 0.120704 0.282965 -54.6075 -54.6075 -54.6075 0.355553 0.34602 0.340561 0.27965 0.340504 0.344435 0.369057 0.321451 0.336945 0.327225 0.29974 0.316395 -54.6075 -54.6075 -54.6075 0.391964 0.373025 0.277534 0.326874 0.335167 0.353539 -54.6075 0.358574 0.373348 0.302647 0.0695915 -0.00567245 -0.0086689 -0.00702667 -0.0130908 -0.0125732 -0.00669289 -0.00546646 0.0951853 0.339264 -54.6075 -54.6075 -54.6075 -54.6075 0.375818 0.337244 0.336903 0.375574 0.385654 0.389339 0.375591 0.363461 0.331427 0.303055 0.291031 0.393547 0.394897 0.384125 0.38064 0.384907 0.393921 0.311014 0.356325 0.394356 0.437038 0.443771 -54.6075 -54.6075 0.0345955 0.00474548 -0.00783348 -54.6075 -0.00460052 -0.00494385 0.00259399 -0.00387828 0.160773 0.30106 -54.6075 0.337139 0.334358 0.318295 0.320999 0.297626 0.363907 0.38835 0.35589 0.365067 0.379107 0.388777 0.365013 0.302656 0.296307 -54.6075 -54.6075 -54.6075 -54.6075 -54.6075 0.328586 0.302101 -54.6075 -54.6075 0.396239 0.4014 -54.6075 -54.6075 0.0162926 -0.00210381 -54.6075 -0.0103683 -0.0038538 -0.00309372 0.0028801 -0.0059967 0.238084 -54.6075 -54.6075 -54.6075 0.356934 -54.6075 0.372982 0.338806 0.297878 -54.6075 -54.6075 -54.6075 -54.6075 0.447981 0.332275 0.308006 0.545418 -54.6075 -54.6075 -54.6075 -54.6075 0.508541 0.408821 0.297279 -54.6075 -54.6075 -54.6075 -54.6075 -54.6075 0.354031 -54.6075 0.000125885 -0.00901031 0.00410843 0.000473022 -54.6075 -54.6075 -54.6075 0.312786 0.343071 -54.6075 0.569248 -54.6075 0.370234 0.386293 0.335138 0.328746 0.376025 0.367241 0.375116 0.366146 0.352085 0.332943 0.307045 0.308849 0.322685 0.317542 0.348011 0.402784 -54.6075 0.394417 0.303749 0.56039 -54.6075 0.347515 0.582993 0.443213 0.393761 0.00654221 -0.000630697 -0.00139046 -0.00682831 -0.000567436 -0.00391769 -54.6075 -0.00117874 0.295341 0.589237 0.633202 0.457684 0.388462 -54.6075 0.357517 0.388187 0.39135 0.346756 0.34812 0.312958 0.300962 -54.6075 -54.6075 -54.6075 0.335327 0.309349 0.396681 0.560749 0.569664 0.564554 0.389008 -0.00453949 -0.000387192 0.00492859 0.00087738 -0.00317764 0.00452042 -0.00241089 0.0107155 0.0075531 -0.000106812 -0.000556946 0.00568199 0.00523758 0.000205994 0.00273132 0.00622368 0.00579834 0.00764084 0.000400543 -54.6075 -54.6075 -54.6075 0.00437164 0.00352669 -0.000989278 0.00476074 0.00850868 0.00103378 0.003479 0.00128555 0.00446033 0.00260448 0.00243759
-0.0108948 -0.0171814 -0.0122172 -0.0141411 -0.0097332 -0.0165291 -0.0158043 -0.0192375 -0.00923157 -0.0105896 -0.0121091 -0.00549126 -0.0128498 0.000583649 -0.00602341 -0.0113157 -0.00487328 -0.0177097 -0.0175171 -0.0277176 -0.0158577 -0.00346756 -0.00526047 -0.0122681 -0.00788689 -0.0124207 -0.0105724 -0.0155315 -0.0191956 -0.0143356 -0.0131721 -0.0107956 -0.0116043 0.182255 0.328749 0.319332 0.313047 0.314985 0.278297 0.334708 0.35705 0.358086 0.379591 0.362289 0.298149 0.29665 0.305965 0.309174 0.316261 0.312305 0.300409 0.37262 0.374126 0.379044 0.350571 -54.6075 -0.0131798 -0.00992966 -0.00847816 -0.00129128 -0.00787354 -0.0167847 -0.0106748 0.0875463 0.335307 -54.6075 -54.6075 -54.6075 0.347343 0.361477 0.352566 0.285738 0.37108 0.344608 0.368801 0.333452 0.34491 0.323448 0.307796 0.304707 -54.6075 -54.6075 -54.6075 0.422867 0.370411 0.294554 0.309879 0.35638 0.369398 0.363718 0.364742 0.376644 0.390411 0.192196 0.00698853 -0.00811895 -0.00159454 -0.00792694 -0.00114059 -0.0120258 -0.0098877 0.129623 0.294847 -54.6075 -54.6075 -54.6075 -54.6075 0.377464 0.353848 0.354649 0.394613 0.381714 0.382769 0.391857 0.355444 0.325108 0.306597 0.291702 0.387312 0.389154 0.389721 0.388704 0.387796 0.369221 0.294102 0.390182 -54.6075 0.362865 0.459713 0.54002 -54.6075 0.0217762 -54.6075 -54.6075 -0.00671005 -0.00508118 -0.00706863 0.00325775 -0.00409317 0.211956 0.293507 -54.6075 0.336159 0.339615 0.309015 0.324619 0.302975 0.353765 0.3932 0.357265 0.359163 0.371305 0.367176 0.368631 0.30899 -54.6075 0.337122 0.355415 -54.6075 0.342381 0.353395 0.32428 0.336594 0.386669 0.396099 0.39937 0.503128 0.518777 -54.6075 -54.6075 -54.6075 -54.6075 0.004179 -0.00848389 0.00373077 -54.6075 -0.0118275 0.291637 -54.6075 -54.6075 -54.6075 -54.6075 0.358395 0.341528 -54.6075 0.294106 0.587921 0.591352 0.614006 0.57901 0.519276 0.340488 0.311623 -54.6075 0.595503 0.650665 0.574328 0.54715 0.545082 0.485031 0.28299 -54.6075 -54.6075 -54.6075 -54.6075 0.487553 -54.6075 -54.6075 -54.6075 -54.6075 -0.00966835 -0.00312805 -54.6075 -0.00102997 -0.000240326 0.443834 -54.6075 0.5466 -54.6075 0.370701 0.3778 0.370041 0.33448 0.308577 0.362392 0.380466 0.380707 0.362068 0.370319 0.339924 0.308072 0.301298 0.314271 0.296078 0.352612 0.362563 0.585378 -54.6075 0.587025 -54.6075 -54.6075 0.341606 0.449474 0.446089 0.408375 0.00999832 0.00307083 -54.6075 7.24792e-005 0.00120544 -54.6075 -54.6075 -0.00969696 0.30785 -54.6075 0.603411 0.429276 0.386549 -54.6075 0.363942 0.362164 0.36525 0.366631 0.346725 0.31732 0.314807 -54.6075 -54.6075 -54.6075 -54.6075 0.306316 0.385527 0.563585 0.578861 0.555359 0.397256 0.0033493 -0.000793457 -0.00598717 0.00375175 0.000106812 0.00321007 -0.00224495 -0.000606537 0.00172806 -0.00412369 0.000923157 0.00256729 0.0007267 0.00447845 -0.00136757 0.000808716 0.00128365 -0.00286102 0.004179 -0.00792313 0.000335693 -0.00421143 0.000267029 -54.6075 -54.6075 -0.00178909 0.00456619 -54.6075 -54.6075 0.00104141 0.0010128 0.00523186 0.0114574
-0.0151558 -0.0097669 -0.0158997 -0.00492859 -0.0118675 -0.0124912 -0.00584793 -0.00945091 -0.00725555 -0.0118742 -0.0134201 -0.0147667 -0.0204048 -0.013382 -0.0123685 -0.0119743 -0.0120125 -0.00874519 -0.0119286 -0.0122328 -0.00978279 -0.0210495 -0.0137196 -0.0208092 -0.0164286 -0.0157776 -0.00250626 -0.0133057 -0.00784302 -0.0122242 -0.00938034 -0.00884247 -0.00847626 0.171382 0.321198 0.308159 0.30933 0.316639 0.295238 0.308941 0.349575 0.352009 0.364348 0.368872 0.314102 0.301302 0.319292 0.316978 0.311501 0.311878 0.289392 0.351425 0.363953 0.363768 0.355675 -54.6075 -0.00906372 -0.0090313 -0.00583649 -0.0105476 -0.0119762 -0.00582759 -0.00710297 0.120224 0.409878 0.589849 0.552446 0.585701 0.357044 0.370115 0.349885 0.287804 0.382256 0.380939 0.369875 0.37365 0.361601 0.339725 0.32523 0.29825 -54.6075 -54.6075 -54.6075 -54.6075 0.364988 0.328838 0.316509 0.377852 0.377369 0.388054 0.363354 0.402023 -54.6075 -54.6075 -0.0058136 -0.0104014 -0.00914001 -0.00498962 -0.00688934 -0.0131702 -0.00961018 0.135528 0.410478 0.632761 0.645462 0.679108 -54.6075 0.376322 0.337421 0.313756 0.395144 0.393715 0.383519 0.382832 0.365775 0.335957 0.301099 0.338936 0.387646 0.384886 0.380939 0.37914 0.399883 0.335318 0.347742 0.339813 0.366615 0.376255 0.42407 0.54985 -54.6075 0.0511971 -0.00567245 -0.00306702 -0.00460243 -0.00696564 -0.00196711 -0.000675201 -0.00717163 0.166651 0.54323 0.681541 0.374611 0.33437 0.312635 0.30097 0.301147 0.335989 0.390743 0.366044 0.362181 0.352901 0.357327 -54.6075 -54.6075 0.292217 0.327632 -54.6075 0.373806 0.374268 0.304115 0.309006 0.324174 0.382164 0.391754 0.393709 0.385311 0.48311 -54.6075 -54.6075 -54.6075 -54.6075 -54.6075 -0.00708199 -0.0100632 -54.6075 0.00122833 0.267502 0.296871 -54.6075 -54.6075 0.285629 -54.6075 0.322117 0.444267 0.30101 -54.6075 0.603348 -54.6075 0.572281 0.587091 0.346409 0.313694 0.293484 0.611771 0.664299 0.595707 0.558233 0.550419 0.471573 0.293179 -54.6075 -54.6075 -54.6075 -54.6075 -54.6075 -54.6075 -54.6075 -54.6075 0.00446701 0.00314331 0.000376383 -0.00413132 0.00209808 -0.00970936 0.452427 0.440609 0.554558 0.610966 0.376904 0.388401 0.367092 0.331371 0.297991 0.398956 0.3955 0.372011 0.374285 0.348808 0.34128 0.313126 0.295719 0.313091 -54.6075 0.347687 0.422215 0.589687 -54.6075 0.305233 -54.6075 -54.6075 -54.6075 0.481274 0.440266 0.400661 0.0237885 -54.6075 -54.6075 -54.6075 0.00202179 0.0013237 0.0018959 -0.00692749 0.314829 0.578817 0.603493 -54.6075 -54.6075 0.30608 0.366793 0.380867 -54.6075 0.358818 0.347994 0.317402 0.307278 -54.6075 -54.6075 -54.6075 -54.6075 -54.6075 0.365662 0.525754 0.563435 0.56735 0.387854 0.0053854 -0.00138092 0.00533962 -0.00137806 0.00290108 0.00263214 0.00448513 0.000703812 -0.000243187 0.000756264 0.0031395 0.00474072 0.00220203 0.00152016 0.00195313 0.00388336 0.00140381 0.00386429 0.000771523 0.00118542 0.00435257 0.00144863 0.00322342 0.000789642 0.00989151 0.00329399 -0.00823975 -0.005373 -0.00525093 -0.0089798 0.00117493 -0.00248718 -0.000522614
-0.00807953 -0.00943375 -0.0103073 -0.00278854 -0.00860786 -0.0155258 -0.0136757 -0.0147972 -0.0124187 -0.0081234 0.000564575 -0.00779533 -0.00741196 -0.0151806 -0.00929133 -0.0177231 -0.0151272 -0.0182915 -0.0124054 -0.0143204 -0.0133095 -0.00306702 -0.00748444 -0.0038681 -0.00649516 -0.000812531 -0.00778008 -0.00268936 -0.00959651 -0.00983429 -0.00970078 -0.0103912 -0.0122452 0.199309 0.310925 0.318357 0.316763 0.320591 0.299956 0.341557 0.346676 0.344538 0.357744 0.359352 0.304499 0.297735 0.337879 0.31484 0.316437 0.306594 0.294006 0.356326 0.35936 0.352684 0.355522 -54.6075 -0.0118523 -0.0108337 -0.0103493 -0.00735092 -0.00242996 -0.000917435 -0.00742722 0.0781021 0.375053 0.584375 0.534622 0.599598 0.368885 0.357059 0.348221 0.331347 0.408222 -54.6075 0.358524 0.390568 0.377377 0.344002 0.314543 0.297272 -54.6075 -54.6075 -54.6075 -54.6075 0.357189 0.340343 0.308084 0.369198 0.372608 0.360119 0.362535 0.4063 0.26091 0.244133 -0.00580597 -0.00658417 0.00286102 -0.0085144 -0.00777817 -0.0109138 -0.00101662 0.209069 0.512527 0.650906 0.640912 0.680592 0.368374 0.366539 0.325264 0.329203 0.385372 0.396355 0.385497 0.365425 0.365648 0.335148 0.30579 0.346249 0.382725 0.382843 0.382183 0.389872 0.380333 0.355322 0.354369 0.371286 0.388275 0.321896 0.450801 0.58358 -54.6075 0.0377312 -0.00730133 -0.0102844 -0.00348663 -0.00966263 -0.00508499 -0.0035553 -0.00642776 0.182313 0.524396 0.677601 0.435406 0.340786 0.317307 0.345734 0.290672 0.347024 0.385939 0.338322 0.354494 0.350445 0.363087 0.349754 0.305387 0.291233 0.306656 0.34621 -54.6075 0.334511 0.34411 0.321715 0.334961 0.368069 0.359558 0.384678 0.395001 0.553688 -54.6075 -54.6075 -54.6075 -0.00145721 -54.6075 -0.00510406 -54.6075 -54.6075 -54.6075 0.281382 0.296797 -54.6075 -54.6075 0.354813 0.338531 0.315781 0.394325 0.634102 -54.6075 -54.6075 -54.6075 0.614565 0.524616 0.33902 0.308102 -54.6075 0.623051 0.636871 0.605078 0.555521 -54.6075 -54.6075 0.640657 -54.6075 -54.6075 -54.6075 -54.6075 -54.6075 0.345833 -54.6075 -54.6075 -0.00324631 0.000853221 -0.000113169 -0.0026474 0.0061264 -0.000715256 0.374641 0.389009 0.546761 0.567204 0.372719 0.373779 0.371609 0.341879 0.299471 0.381577 0.382038 -54.6075 0.359676 0.351601 0.344696 0.319614 0.303928 0.358234 0.364983 -54.6075 -54.6075 0.596588 0.42989 0.437348 0.588467 0.570869 -54.6075 0.444561 0.450687 -54.6075 0.0187035 -54.6075 -0.00383759 -0.00567245 -54.6075 2.38419e-005 -0.00265694 -0.0040493 -54.6075 0.593899 0.607683 0.554562 0.386668 0.311081 -54.6075 0.433243 0.377232 0.352579 0.344097 0.313297 0.316477 -54.6075 -54.6075 -54.6075 -54.6075 0.305084 0.37966 0.549417 0.581818 0.591642 0.398199 0.00382423 -0.008358 -0.000738144 -0.00380516 0.00372314 -0.00385284 -0.00167084 0.00103378 -0.00402069 -0.00667 0.00617218 0.000513077 0.001791 0.00414658 -0.00301361 0.00523758 -0.00257874 0.0115776 -0.00616646 0.00110245 -0.00262451 -0.000274658 -0.00457382 0.000895182 0.00311947 0.00181866 -0.00396919 -0.000326157 0.0022192 -0.00109863 0.000226974 -0.00117238 0.00628471
-0.0176048 -0.0120525 -0.00683594 -0.00979487 -0.0033226 0.000270844 -0.00478935 -0.0116692 -0.0113411 -0.0175667 -0.014389 -0.0113201 -0.0202293 -0.00876236 -0.00887299 -0.016571 -0.0116673 -0.0106411 -0.0179901 -0.0136604 -0.00294876 -0.0119006 -0.00878906 -0.0115242 -0.0128021 -0.00557327 -0.0122121 -0.0133743 -0.0121956 -0.010643 -0.0111771 -0.0166893 -0.0107594 0.169315 0.342745 0.322479 0.308794 0.321423 0.305005 0.342161 0.351315 0.357117 0.358484 0.37793 0.297604 0.291397 0.328516 0.323215 0.310608 0.318342 0.299927 0.351606 0.359203 0.355812 0.35043 -54.6075 -0.0013237 -0.0139046 -0.0110779 -0.0159702 -0.0198479 -0.0143051 -0.00872993 0.0365509 0.401838 0.593723 0.544077 0.578148 0.366104 0.378593 0.351019 0.334314 0.375526 0.39275 0.374987 0.450542 0.335819 0.336454 0.315042 0.294979 0.357399 -54.6075 -54.6075 0.366005 0.366365 0.354649 0.302615 0.37051 0.3731 0.375801 0.362368 0.409735 0.261406 -54.6075 -0.00251007 -0.00650215 -0.00761541 -0.00556946 -0.00809606 -0.00707626 -0.0132599 0.179093 0.56031 0.649683 0.652105 0.679037 0.373974 0.368523 0.335625 0.333096 0.381219 0.388969 0.390352 0.376114 0.360372 0.33433 0.308834 0.316107 0.395546 0.37907 0.37183 0.386343 0.381969 0.348835 0.342089 0.377296 0.442375 0.44413 0.447617 0.575039 -54.6075 0.0540009 -0.00294304 -0.00321579 4.95911e-005 -0.0070343 -0.00524139 -0.00335948 -0.00412178 0.121208 0.498586 0.673414 -54.6075 0.337666 0.330891 0.316824 0.284832 0.331892 0.365131 0.353456 0.34001 0.349297 0.360297 0.358791 0.310238 0.301497 0.386183 0.334723 0.317219 0.351382 0.332779 0.325607 0.341811 0.371248 0.367449 0.379675 0.386713 0.576101 -54.6075 -54.6075 -0.00511742 0.00101852 -54.6075 -0.00116094 -54.6075 -54.6075 -0.00991821 0.303955 0.325228 -54.6075 -54.6075 0.30798 0.316856 0.333494 0.304962 0.613031 -54.6075 -54.6075 0.565899 0.613392 0.561245 0.339355 -54.6075 0.600128 0.646427 0.662827 0.63932 -54.6075 0.526787 0.524792 0.468281 -54.6075 -54.6075 -54.6075 -54.6075 -54.6075 0.326756 0.00171661 -54.6075 -54.6075 0.00824102 0.00608063 0.00688934 0.00465393 -0.00489998 0.32237 0.449236 0.51137 -54.6075 0.380135 0.390209 0.375264 0.348289 0.296192 0.367119 -54.6075 -54.6075 0.39563 -54.6075 -54.6075 0.29475 0.302448 -54.6075 0.300255 0.341372 0.359318 -54.6075 -54.6075 0.429464 0.575008 0.561703 -54.6075 0.605972 -54.6075 -54.6075 -0.00477219 -0.000776291 0.000867208 0.011898 0.00241089 -54.6075 -54.6075 -54.6075 0.300629 0.59622 0.614902 0.573769 -54.6075 0.302376 0.428274 -54.6075 -54.6075 0.390503 0.349678 0.318874 0.313271 -54.6075 -54.6075 -54.6075 -54.6075 0.301636 0.376984 0.480543 0.547991 0.569808 0.404549 -0.00208664 0.00822067 0.00345039 -0.000112534 0.00732803 -0.0010643 0.00128174 -0.000782013 0.00746727 0.0117111 -0.00384521 0.00190163 -0.000432968 0.00512695 0.00625801 0.000635147 0.00250626 0.00615692 0.00950623 0.00380325 -0.00722885 0.00341034 0.010273 0.000728607 0.00274277 0.00263023 -0.00479889 0.00627518 0.00270081 0.00349045 -0.00154495 0.000944773 0.00914764
