-219.253 0.134232 0.0985057 0.123825 0.0453695 -0.0239563 -0.0980682 -0.0975189 -219.253 -0.110855 -0.0805003 -219.253 -0.332881 -0.36397 -0.324709 -0.360982 -0.42148 -0.345564 -0.4509 -0.41335 -0.391884 -0.450581 -0.342012 -0.355272 -0.454659 -0.33981 -0.431658 -0.458172 -0.36586 -0.462644 -0.407841 -0.360922 -0.463337 -0.429599 -0.414061 -0.0752767 -0.0608978 -0.11734 -0.356703 -0.407786 -0.414763 -0.384524 -0.473539 -0.432702 -0.452101 -0.394287 -0.426222 -0.458492 -0.456441 -0.425451 -0.46416 -0.399562 -0.415075 -0.41663 -0.410391 -0.383685 -0.372854 -0.436893 -0.460624 -0.372969 -0.419276 -0.0445709 -0.0634918 -0.0775375 -0.0661545 -0.0534058 -0.104904 -0.0634232 -219.253 -0.069603 -0.0323435 -0.0733261 -0.0822296 -0.0571493 -0.0814819 -0.0643692 -0.0527496 -0.0650228 -0.0655365 -0.0680033 -0.0465775 -0.0878448 -0.0737559 -0.0553818 -0.044281 -0.0971375 -0.0625305 -0.0729904 -0.0521851 -0.0422363 -0.0531845 -0.0838165 -0.0573807 -0.0267893 -0.0596237 0.00543213 -0.0747223 -0.0320511 -0.0608063 -0.0810852 -0.0228195 -0.0566813 -0.0744324 -0.0262756 -0.0116806 -0.0474319 -219.253 -219.253 -219.253 -219.253 -0.103325 -219.253 -219.253 -219.253 -219.253 -219.253 0.0219421 -0.0371094 -0.099884 -219.253 -0.6548 -0.660912 -0.663437 -219.253 -219.253 -219.253 -219.253 -219.253 -219.253 -219.253 -219.253 -0.590439 -0.372401 -0.505074 -0.481873 -0.53468 -0.320132 -0.392235 -0.36072 -0.353188 -0.346381 -0.163967 -0.386063 -0.249718 -0.262217 -0.313782 -0.349306 -0.264214 -0.294484 -0.372805 -0.253738 -0.262842 -0.263762 -0.263149 -0.408306 -0.200214 -0.255817 -0.312599 -0.241745 -0.232946 -0.425756 -0.24988 -0.236699 -0.257027 -0.362186 -0.334234 -0.255536 -0.22261 -0.208857 -0.23254 0.00362651 -0.0419312 -0.00816345 0.00518036 -0.029953 0.00692749 -0.0236206 -0.0335388 -0.00852203 0.00556437 -0.0166168 -0.00814819 -0.0262756 0.0102158 -0.00896454 -0.0201302 0.00615946
-219.253 0.0540009 0.0761414 0.0647888 0.0494537 -0.0651321 -0.121399 -0.120132 -0.0679016 -0.106934 -0.0736237 -0.10704 -0.714249 -0.717316 -0.031189 -0.7173 -0.712814 -0.390198 -0.706039 -0.712563 -0.713318 -219.253 -0.70974 -219.253 -0.710159 -0.708298 -0.708145 -0.70903 -0.709 -0.710327 -0.704811 -0.709061 -0.704193 -0.704666 -0.454842 -0.0825424 -0.0609894 -0.125916 -0.701889 -0.695404 -0.692856 -0.697792 -0.695145 -0.697342 -0.698074 -0.696121 -0.693817 -0.695038 -219.253 -0.695877 -0.693705 -0.69194 -0.691002 -0.690857 -0.688889 -0.689087 -0.689163 -0.689438 -0.688362 -0.688965 -0.495846 -0.1959 -0.0743103 -0.0375748 -0.0455933 -0.102272 -0.0863647 -0.052063 -0.0480906 -0.0685577 -0.0490494 -0.0431671 -0.0425491 -0.104858 -0.0538101 -0.101898 -0.0372314 -0.0607605 -0.077774 -0.0644684 -0.0720139 -0.0877228 -0.0651245 -0.0551224 0.00151062 -0.0266113 -0.0338287 -0.0801392 -0.00458527 -0.0695648 -0.0702972 -0.0633698 -0.0379333 -0.0289307 -0.0400085 -0.0238953 -0.0288239 -0.0774231 -0.0499649 -0.0606384 -0.0369492 -0.0191193 -0.0119858 -0.0497742 -0.00989532 -0.0570679 -0.0815735 -219.253 -219.253 -219.253 -219.253 -219.253 -219.253 -219.253 -219.253 -0.105072 -219.253 0.0308228 -0.0719757 -219.253 -219.253 -0.655869 -0.661346 -219.253 -219.253 -219.253 -219.253 -219.253 -219.253 -219.253 -0.598053 -0.599075 -0.60054 -0.632202 -0.597229 -0.624659 -0.609283 -0.611946 -0.634941 -0.615562 -0.636963 -0.647507 -0.308963 -0.0578156 -0.270847 -0.587479 -0.619812 -0.62883 -0.615852 -0.629181 -0.596965 -0.590103 -0.516922 -0.625237 -0.60717 -0.615669 -0.581619 -0.62326 -0.647156 -0.611954 -0.637863 -0.608658 -0.576202 -0.579758 -0.634918 -0.600121 -0.640823 -0.639313 -0.633415 -0.268192 -0.0192413 -0.0112356 0.0454483 0.000976563 -0.0244827 0.00908915 -0.0299835 -0.000617981 -0.040863 -0.0179367 0.013916 -0.0447311 -0.0234375 -0.0205536 -0.0172653 -0.026535 -0.0454559
-219.253 0.0736542 0.102244 0.0858231 0.0442429 -0.0184631 -0.102253 -0.0860062 -0.102315 -219.253 -219.253 -219.253 -219.253 -0.710686 -0.712158 -219.253 -0.711563 -0.712799 -0.707657 -219.253 -0.709679 -0.708267 -0.709091 -0.70694 -0.709351 -0.706375 -0.705597 -0.702721 -0.705551 -0.703194 -0.701675 -219.253 -0.702972 -0.698883 -0.411163 -219.253 -0.101334 -0.0825806 -0.695206 -0.696777 -219.253 -0.694748 -0.696884 -0.692169 -0.695404 -0.690796 -0.694595 -0.691696 -0.694427 -219.253 -0.692001 -0.69104 -0.689186 -0.688004 -0.688629 -0.686798 -0.691147 -0.68631 -0.687065 -0.685196 -0.406105 -0.0374527 -0.0642776 -0.0830994 -0.0647964 -0.0908203 -0.047521 -219.253 -219.253 -219.253 -219.253 0.116058 -219.253 -219.253 -219.253 -219.253 -219.253 -219.253 -219.253 -219.253 -219.253 -219.253 -219.253 -219.253 -219.253 -219.253 0.116577 0.066185 -0.0393219 -0.0536601 -0.0497742 -0.0293172 0.00178528 -219.253 -219.253 0.14534 0.146118 -219.253 -219.253 -219.253 0.0884705 -219.253 0.145874 0.144318 0.144089 0.0803986 -219.253 -219.253 -219.253 -219.253 -219.253 -219.253 -219.253 -219.253 -219.253 -219.253 -219.253 -0.0789032 -0.0737305 -219.253 -219.253 -0.660095 -0.655212 -219.253 -0.660538 -219.253 -219.253 -0.665024 -219.253 -219.253 -0.600502 -0.59758 -0.593979 -0.595108 -0.596497 -0.625402 -0.614288 -0.615715 -0.629204 -0.617332 -0.638336 -0.648163 -0.429129 -0.0381699 -0.30629 -0.596573 -0.616521 -0.637695 -0.606339 -0.620499 -0.616524 -0.587128 -0.584381 -0.61171 -0.593918 -0.610153 -219.253 -0.61259 -219.253 -0.625799 -0.607254 -0.603874 -0.598282 -0.576614 -0.618576 -0.60479 -0.618001 -0.63652 -0.504826 -0.199374 -0.00240326 -0.0092926 0.0168228 -0.000301361 -0.00532532 0.00198364 -0.0238495 0.0086441 -0.0137278 0.00844574 -0.0205917 0.00752258 -0.0240682 0.00662231 -0.00837708 -0.0295258 -0.00246429
-219.253 0.0815074 0.126312 0.0919876 0.0415446 -0.0569763 -0.0799255 -219.253 -0.0758514 -0.074707 -0.114235 -219.253 -0.711014 -219.253 -0.709305 -0.709839 -0.709236 -219.253 -0.709663 -0.710526 -0.705719 -0.706202 -0.706543 -0.705521 -0.705989 -0.702393 -0.70134 -0.700058 -0.694397 -0.697479 -0.697067 -0.700859 -0.699127 -0.699768 -0.293588 -0.107727 -0.076767 -219.253 -219.253 -0.694519 -0.696472 -0.692345 -0.692535 -0.691986 -0.692207 -0.694 -0.689077 -0.690216 -0.694077 -0.690903 -0.689697 -0.690735 -0.689407 -0.689301 -0.687485 -0.686974 -0.688217 -0.686646 -0.686646 -0.687515 -0.438967 -0.110102 -0.0577393 -0.0751801 -0.0544332 -0.0697479 -0.0370712 0.0404104 0.131042 0.131882 0.134232 0.131348 0.131058 0.132492 0.135399 0.136192 0.134084 0.135773 0.140038 0.138222 0.141495 0.137512 0.141164 0.140518 0.13945 0.139175 0.141902 0.0677338 -0.0374451 -0.0666351 -0.0258865 -0.0550613 0.054245 0.134129 0.146591 0.146378 0.141846 0.141688 0.150024 0.142647 0.145302 0.14666 0.147324 0.143051 0.148659 -219.253 -219.253 -219.253 -219.253 0.138687 0.139267 -219.253 -219.253 -219.253 -219.253 -219.253 -219.253 -0.0868073 -219.253 -219.253 -219.253 -0.651657 -0.654953 -219.253 -219.253 -219.253 -219.253 -219.253 -219.253 -0.599716 -0.599442 -0.597816 -0.598343 -0.595184 -0.596298 -0.620036 -0.613632 -0.612885 -0.632332 -0.61879 -0.645164 -0.645264 -0.315616 -0.0374603 -0.374149 -0.583214 -0.615046 -0.626068 -0.611809 -0.601578 -0.621063 -0.585381 -0.576782 -0.631264 -0.57605 -0.623489 -0.579941 -0.60199 -0.611015 -0.640427 -0.630142 -0.577377 -0.592552 -0.576813 -0.612854 -0.604706 -0.635399 -0.636597 -0.629105 -0.242594 -0.0168304 -0.0115967 0.0301056 -0.0347214 -0.0123138 0.0189107 0.0354309 -0.0295715 0.00906372 0.0856628 -0.02565 0.00926208 -0.0200958 -0.0180206 -0.0103073 0.00492096 -0.0408936
-219.253 0.0567017 0.0618439 -219.253 -219.253 -0.0380503 -0.064916 -0.147743 -0.125992 -0.0836283 -219.253 -219.253 -0.708267 -0.708969 -219.253 -219.253 -0.705994 -0.707001 -0.705467 -0.708923 -0.706665 -0.702065 -219.253 -0.701355 -0.702286 -0.701523 -0.703133 -0.699219 -0.700256 -0.698074 -0.704086 -219.253 -219.253 -0.698311 -0.406706 -0.0688629 -219.253 -219.253 -0.694489 -219.253 -0.691307 -0.694366 -0.693863 -0.690155 -0.691696 -0.692474 -0.691833 -0.697098 -219.253 -0.692551 -0.693832 -0.692932 -0.687805 -0.690048 -0.69165 -0.692123 -0.692352 -0.688141 -0.689575 -0.689667 -0.442627 -0.0606537 -219.253 -0.0566915 -0.0670319 -0.0832672 -0.019104 0.146065 0.136482 0.135506 0.131607 0.135231 0.132172 0.137436 0.131958 0.132538 0.134369 0.135384 0.137833 0.136826 0.139242 0.140076 0.138367 0.138916 0.133942 0.14241 0.138847 0.0419617 -0.0162811 -0.0283661 -0.0622177 -0.071228 0.0545044 0.162994 0.147049 0.151718 0.144058 0.143257 0.142273 0.149101 0.146011 0.14032 0.148048 0.145782 0.146851 0.145065 0.143188 -219.253 -219.253 -219.253 0.145772 -219.253 0.0796814 -219.253 -219.253 -219.253 -219.253 -0.0762482 -219.253 -219.253 -219.253 -0.660828 -0.653778 -0.653404 -0.662476 -219.253 -219.253 -219.253 -0.601913 -0.598083 -0.603424 -0.596703 -0.594681 -0.596344 -0.594887 -0.620796 -0.609894 -0.613472 -0.630211 -0.61998 -0.647041 -0.646301 -0.324709 -0.204971 -0.367792 -0.589394 -0.657562 -0.644653 -0.60581 -0.615479 -0.588821 -0.614616 -219.253 -0.597801 -0.695938 -0.611211 -0.573334 -219.253 -0.611725 -0.575073 -0.625893 -0.574875 -0.567688 -0.573669 -0.569771 -0.612274 -0.635048 -0.634125 -0.59766 -0.1918 0.0100098 -0.000137329 0.00646973 -0.00126648 -0.0171967 0.0075887 0.00836182 0.00362396 -0.0086441 -0.0217972 -0.0196381 0.0166473 -0.0348625 -0.011322 0.00321452 -0.0453033 -0.0213776
-219.253 -219.253 -219.253 0.0568085 -219.253 -0.0878448 -0.0894623 -0.0864563 -0.0829468 -219.253 -219.253 -0.698257 -0.720266 -0.741821 -0.729309 -0.725733 -0.730873 -0.719406 -0.716507 -0.732814 -0.741043 -0.746025 -0.728394 -0.717758 -0.72937 -0.726311 -0.735809 -0.733846 -0.743469 -0.726341 -0.739883 -0.719238 -0.720993 -0.719917 -0.615219 -0.380573 -219.253 -0.748657 -0.716015 -0.720284 -0.748367 -0.726995 -0.747437 -0.730881 -0.72403 -0.743179 -0.722804 -0.741768 -0.715858 -0.729762 -219.253 -0.732117 -0.730942 -0.721207 -0.743744 -0.744888 -0.721268 -0.745728 -0.722153 -0.717651 -0.486191 -0.331205 -0.0518829 -0.0791779 -0.0472463 -0.0638428 -0.0145213 0.112991 0.136154 0.127014 0.132721 0.13047 0.133118 0.131172 0.135773 0.132629 0.137756 0.136787 0.135971 0.137039 0.135406 0.142181 0.140152 0.141861 0.141251 0.140762 0.136345 0.0815811 -0.0228577 -0.0753021 -0.0894165 -0.0563965 0.0519791 0.143845 0.146523 0.147522 0.14595 0.144051 0.146317 0.144211 0.146759 0.141891 0.145554 0.144928 0.148666 0.145493 0.14444 -219.253 0.141991 0.151535 -219.253 0.148834 0.132278 -219.253 -219.253 -219.253 -0.0775909 -0.0861511 -219.253 -219.253 -219.253 -219.253 -0.704315 -0.683212 -0.706818 -0.67543 -219.253 -219.253 -0.597672 -0.597061 -0.595978 -0.596283 -0.594284 -0.594437 -0.597916 -0.593704 -0.655782 -0.623955 -0.659582 -0.636101 -0.666412 -0.687096 -0.580528 -0.334315 -0.351463 -0.59137 -0.62645 -0.664856 -0.61377 -0.65448 -0.654872 -0.580246 -0.57515 -0.639099 -0.65094 -0.574173 -0.628082 -0.579758 -219.253 -0.628975 -0.578369 -0.63134 -0.566895 -0.564056 -0.572601 -0.643773 -0.624321 -0.680382 -0.681305 -0.382585 -0.0138397 0.00199127 -0.00450134 0.00198364 0.00665283 0.0148722 -0.0261002 -0.0359344 -0.00843302 0.0242462 -0.00732422 -0.0324173 0.0141907 0.00453186 -0.0235596 -0.0349426 -0.0159683
-219.253 0.0747681 -219.253 -219.253 0.00634766 -0.0588938 -0.0931854 -0.105469 -0.0674642 -0.106125 -219.253 -219.253 -219.253 -219.253 -219.253 -219.253 -219.253 -219.253 -219.253 -219.253 -219.253 -219.253 -219.253 -219.253 -219.253 -219.253 -219.253 -219.253 -219.253 -219.253 -219.253 -219.253 -219.253 -219.253 -219.253 -0.107081 -219.253 -219.253 -219.253 -219.253 -219.253 -219.253 -219.253 -219.253 -219.253 -219.253 -219.253 -219.253 -219.253 -219.253 -219.253 -219.253 -219.253 -219.253 -219.253 -219.253 -219.253 -219.253 -219.253 -219.253 -219.253 -0.101791 -0.0725098 -0.0693207 -0.0717773 -0.0871964 -0.0140686 0.0708618 0.140778 0.130356 0.128387 0.136177 0.132858 0.136238 0.134705 0.135345 0.136436 0.131302 0.140259 0.131653 0.137344 0.140503 0.142548 0.139297 0.142212 0.142555 0.136215 0.0560608 -0.0417938 -0.0441895 -0.0616989 -0.0718689 0.0527115 0.182068 0.14547 0.150177 0.144897 0.144821 0.142654 0.146461 0.145569 0.139694 0.14592 0.145226 0.152161 0.148849 0.146515 -219.253 -219.253 -219.253 -219.253 0.147026 0.130325 0.0321655 -0.0990601 -219.253 -0.0835266 -219.253 -219.253 -219.253 -219.253 -219.253 -219.253 -0.698288 -219.253 -0.701904 -219.253 -0.635356 -0.61351 -0.637202 -0.636642 -0.623924 -0.620636 -0.620178 -0.618942 -0.610352 -0.635857 -0.615311 -0.632713 -0.620346 -0.625824 -0.643967 -219.253 -0.259149 -0.368099 -0.638535 -0.617325 -0.630219 -0.601181 -0.618881 -0.60495 -0.609848 -0.586082 -0.629974 -0.629349 -0.597397 -0.59655 -0.623764 -0.60437 -0.601288 -219.253 -0.625687 -0.596191 -0.612572 -0.612839 -0.619125 -0.592796 -219.253 -219.253 -0.00177511 -0.00120544 -0.0114187 0.00259399 -0.0094223 -0.0175018 -0.0227509 -0.00525284 -0.00860596 -0.0111237 0.0325419 0.0306854 -0.0173645 -0.00382233 -0.00602722 -0.0100174 -0.0122375 -0.00123596
-219.253 0.115395 0.0650177 -219.253 -219.253 -219.253 -0.0897217 -0.0608368 -0.0976715 -0.113728 -219.253 -219.253 -219.253 -219.253 -219.253 -219.253 -219.253 -219.253 -219.253 -219.253 -219.253 -219.253 -219.253 -219.253 -219.253 -219.253 -219.253 -219.253 -219.253 -219.253 -219.253 -219.253 -219.253 -219.253 -0.284561 -0.0925522 -219.253 -219.253 -219.253 -219.253 -219.253 -219.253 -219.253 -219.253 -219.253 -219.253 -219.253 -219.253 -219.253 -219.253 -219.253 -219.253 -219.253 -219.253 -219.253 -219.253 -219.253 -219.253 -219.253 -219.253 -219.253 -0.0703583 -0.0445353 -0.0603638 -0.067421 -0.0876389 0.00906372 0.125351 0.13295 0.127892 0.135742 0.137337 0.135193 0.137779 0.138336 0.133987 0.131256 0.135788 0.136612 0.141159 0.135391 0.138916 0.141205 0.14035 0.138412 -219.253 0.141418 0.094696 -0.0307312 -0.0308228 -0.0432739 -0.0295817 0.0595093 0.166504 0.143738 0.144485 0.146591 0.144714 0.144135 0.142937 0.146423 0.146339 0.146088 0.13974 0.153503 0.145462 0.15123 0.145836 -219.253 0.138153 0.149185 0.150482 0.13942 0.0362244 -219.253 -219.253 -219.253 -0.0887756 -219.253 -219.253 -219.253 -219.253 -219.253 -219.253 -219.253 -219.253 -0.655205 -0.642418 -0.647125 -0.654823 -0.645706 -0.648224 -0.647705 -0.644058 -219.253 -0.638763 -0.628525 -0.63266 -0.639862 -0.622986 -0.639542 -219.253 -0.0479126 -0.178136 -0.228953 -0.649185 -0.646576 -219.253 -0.629715 -0.652496 -0.615112 -219.253 -219.253 -219.253 -219.253 -219.253 -219.253 -219.253 -219.253 -219.253 -219.253 -0.621292 -219.253 -219.253 -219.253 -219.253 -219.253 -219.253 -0.0405426 -0.0071106 0.0162099 -0.00759888 0.0138168 -0.0134328 -0.0030365 0.00673676 0.0065918 -0.0252686 0.0246735 -0.00933838 0.0267181 -0.0120239 0.0316315 0.0178909 -0.00354004 -0.0116119 -0.00856018
-219.253 -219.253 -219.253 0.0584869 -219.253 -0.0369263 -0.0844676 -0.118179 -0.108063 -0.113973 -219.253 -219.253 -219.253 -219.253 -219.253 -219.253 -219.253 -219.253 -219.253 -219.253 -219.253 -219.253 -219.253 -219.253 -219.253 -219.253 -219.253 -219.253 -219.253 -219.253 -219.253 -219.253 -219.253 -219.253 -0.0864258 -0.0985819 -219.253 -219.253 -219.253 -219.253 -219.253 -219.253 -219.253 -219.253 -219.253 -219.253 -219.253 -219.253 -219.253 -219.253 -219.253 -219.253 -219.253 -219.253 -219.253 -219.253 -219.253 -219.253 -219.253 -219.253 -0.0707672 -0.0778198 -0.0779063 -0.0912399 -0.0633926 -0.0643921 0.00149028 0.0723267 0.128128 0.137192 0.130692 0.136917 0.135376 0.140022 0.131836 0.140701 0.141769 0.138069 0.137848 0.141571 0.138428 0.137741 0.135722 0.137985 0.131439 0.139923 0.140274 0.0877482 -0.0403748 -0.040596 -0.0566635 -0.0710449 0.047699 0.156136 0.150238 0.143921 0.142838 0.145905 0.144806 0.145874 0.145935 0.141113 0.149567 0.142731 0.145401 0.15239 0.146011 0.149048 0.146591 0.145401 0.140533 0.149612 -219.253 -219.253 -219.253 -219.253 -219.253 -0.0812836 -219.253 -219.253 -219.253 -219.253 -219.253 -219.253 -219.253 -219.253 -219.253 -219.253 -219.253 -219.253 -219.253 -219.253 -219.253 -219.253 -219.253 -219.253 -219.253 -219.253 -219.253 -219.253 -219.253 -219.253 -0.0226135 -0.00767517 -0.0441208 -219.253 -219.253 -219.253 -219.253 -219.253 -219.253 -219.253 -219.253 -219.253 -219.253 -219.253 -219.253 -219.253 -219.253 -219.253 -219.253 -219.253 -219.253 -219.253 -219.253 -219.253 -219.253 -219.253 -0.0219727 0.000679016 0.0353088 -0.0101369 0.0157623 -0.00140381 -0.0182953 0.00370789 -0.0190887 0.00406647 0.00132751 0.0297394 0.0339966 0.00521342 0.00953674 0.0119476 0.00558472 0.0295181 0.0379791
-219.253 -219.253 0.096817 -219.253 0.0374451 -219.253 -0.120804 -0.0668716 -0.0961761 -0.130203 -219.253 -219.253 -219.253 -219.253 -219.253 -219.253 -219.253 -219.253 -219.253 -219.253 -219.253 -219.253 -219.253 -219.253 -219.253 -219.253 -219.253 -219.253 -219.253 -219.253 -219.253 -219.253 -219.253 -0.030838 -0.114822 -0.108917 -219.253 -219.253 -219.253 -219.253 -219.253 -219.253 -219.253 -219.253 -219.253 -219.253 -219.253 -219.253 -219.253 -219.253 -219.253 -219.253 -219.253 -219.253 -219.253 -219.253 -219.253 -219.253 -219.253 -0.0327606 -0.0755768 -0.0425644 -0.0773849 -0.0933075 -0.060051 -0.0867767 -0.0471573 0.0809555 0.141647 0.133514 0.135742 0.136505 0.137848 0.137535 0.140564 0.134888 0.141167 0.131149 0.137253 0.140762 0.141983 0.1418 0.136818 0.137634 0.141762 0.139297 0.148773 0.0940501 -0.0388641 -0.0824966 -0.0413462 -0.0651245 0.0193176 0.12943 0.145615 0.137482 0.143204 0.144508 0.146332 0.143639 0.143585 0.140305 0.144836 0.146988 0.147842 0.144615 0.152145 0.150848 0.15033 0.145325 -219.253 0.150528 -219.253 -219.253 -219.253 -219.253 -0.0969696 -219.253 -219.253 -219.253 -219.253 -219.253 -219.253 -219.253 -219.253 -219.253 -219.253 -219.253 -219.253 -219.253 -219.253 -219.253 -219.253 -219.253 -219.253 -219.253 -219.253 -219.253 -219.253 0.103966 0.0239334 -0.00391388 -0.0196228 -0.0213852 -219.253 -219.253 -219.253 -219.253 -219.253 -219.253 -219.253 -219.253 -219.253 -219.253 -219.253 -219.253 -219.253 -219.253 -219.253 -219.253 -219.253 -219.253 -219.253 -219.253 -219.253 -219.253 0.0191956 0.0348663 -0.0201416 0.000717163 0.0186462 -0.0187683 0.00288391 -0.00546773 -0.00547791 0.00301361 -0.0204849 0.00241089 -0.0208206 -0.0229492 0.0151825 0.0139847 -0.00323486 -0.0103149 -0.00741577 -0.00114441 0.00543213
-219.253 0.140594 0.105184 0.0756683 0.0277863 -0.0187378 -0.0843302 -0.08933 -0.0886688 -219.253 -219.253 -219.253 -219.253 -219.253 -219.253 -219.253 -219.253 -219.253 -219.253 -219.253 -219.253 -219.253 -219.253 -219.253 -219.253 -219.253 -219.253 -219.253 -219.253 -219.253 -219.253 -219.253 -219.253 0.0610962 -0.101517 -0.0745087 -219.253 -0.117844 -219.253 -219.253 -219.253 -219.253 -219.253 -219.253 -219.253 -219.253 -219.253 -219.253 -219.253 -219.253 -219.253 -219.253 -219.253 -219.253 -219.253 -219.253 -219.253 -219.253 -219.253 -0.0124741 -0.0877686 -0.0527496 -0.0404663 -0.0936966 -0.0488485 -0.0999756 -0.0457916 0.0881729 0.142273 0.139969 0.136261 0.137039 0.134628 0.132935 0.137901 0.143082 0.139374 0.142006 0.144089 0.142075 0.136917 0.140747 0.138794 0.140106 0.141434 0.139603 0.136635 0.0893402 -0.0387878 -0.0764771 -0.0522308 -0.076828 0.0501709 0.152855 0.142853 0.145355 0.143112 0.141945 0.146133 0.143311 0.143692 0.142776 0.146164 0.143875 0.145889 0.146034 0.142746 0.151306 0.150497 0.151443 0.1465 -219.253 -219.253 -219.253 -219.253 -0.0792084 -0.0716553 -219.253 -219.253 -219.253 -219.253 -219.253 -219.253 -219.253 -219.253 -219.253 -219.253 -219.253 -219.253 -219.253 -219.253 -219.253 -219.253 -219.253 -219.253 -219.253 -219.253 0.291306 0.222168 0.115738 0.0287323 0.0311228 -0.0205688 -0.00308228 -0.0499268 -0.0552063 -219.253 -219.253 -219.253 -219.253 -219.253 -219.253 -219.253 -219.253 -219.253 -219.253 -219.253 -219.253 -219.253 -219.253 -219.253 -219.253 -219.253 0.348038 0.181908 0.0638657 0.00405884 0.0307388 -0.0105743 -0.00276693 -0.025589 -0.00889587 0.00144958 0.0224152 -0.0111389 -0.0151978 -0.00142924 -0.0207825 0.0121613 0.0103149 0.00832367 -0.00948588 -0.00905991 0.0212402 -0.0223236 -0.0187073 0.00880432
-219.253 -219.253 -219.253 0.122101 0.0530701 -0.0485764 -0.135712 -0.0310059 -0.0920461 -0.103134 -0.121674 -0.1082 -0.126556 -219.253 -219.253 -219.253 -219.253 -219.253 -219.253 -219.253 -219.253 -219.253 -219.253 -219.253 -219.253 -219.253 -219.253 -219.253 -219.253 -219.253 -219.253 -219.253 -219.253 -0.00406647 -0.0703888 -0.0967407 -0.0824687 -0.107559 -0.068924 -219.253 -219.253 -219.253 -219.253 -219.253 -219.253 -219.253 -219.253 -219.253 -219.253 -219.253 -219.253 -219.253 -219.253 -219.253 -219.253 -219.253 -219.253 -219.253 0.0579987 0.00415039 -0.0511424 -0.0728607 -0.0902405 -0.0728149 -0.0485001 -0.0533676 -0.0317078 0.0783285 0.134201 0.141808 0.136795 0.135574 0.141418 0.131409 0.13871 0.138687 0.142227 0.1409 0.140182 0.139603 0.138702 0.138763 0.137222 0.139252 0.137375 0.140121 0.134995 0.0860443 -0.0185242 -0.0609741 -0.0638657 -0.0538177 0.0578613 0.158859 0.147247 0.145279 0.145966 0.14138 0.143799 0.145538 0.143936 0.145218 -219.253 0.146622 0.148758 0.144073 0.150726 0.14856 0.151093 0.15181 0.152908 0.150574 -219.253 -219.253 -219.253 -0.0717163 -219.253 -0.0796661 -219.253 -0.0706482 -0.0260849 -219.253 -219.253 -219.253 -219.253 -219.253 -219.253 -219.253 -219.253 -219.253 -219.253 -219.253 -219.253 -219.253 -219.253 -219.253 -219.253 0.324839 0.224564 0.122086 0.0709381 0.0409953 -0.019104 -0.0111084 -0.00967407 -0.0252736 0.00305176 0.0620193 -219.253 -219.253 -219.253 -219.253 -219.253 -219.253 -219.253 -219.253 -219.253 -219.253 -219.253 -219.253 -219.253 -219.253 -219.253 0.446233 0.209274 0.0907898 0.0736618 0.0658417 0.000717163 0.00270081 0.0196991 0.00794983 -0.00395203 -0.00666046 -0.0207825 0.0162888 -0.0129929 0.0164032 0.0229111 0.0133133 -0.0172043 0.00317383 -0.0450821 0.00510406 -0.0126953 -0.0279617 -0.0161667
-219.253 0.0571899 0.107315 0.0724945 0.0466995 -0.0360362 -0.114827 -0.0715637 -0.10347 -0.0766296 -0.106766 -0.0683899 -0.0359192 0.0141144 -219.253 -219.253 -219.253 -219.253 -219.253 -219.253 -219.253 -219.253 -219.253 -219.253 -219.253 -219.253 -219.253 -219.253 -219.253 -219.253 -219.253 -219.253 0.0933075 0.00970459 -0.106323 -0.118637 -0.107971 -0.0884476 -0.00822449 0.0600052 -219.253 -219.253 -219.253 -219.253 -219.253 -219.253 -219.253 -219.253 -219.253 -219.253 -219.253 -219.253 -219.253 -219.253 -219.253 -219.253 -219.253 -219.253 0.092748 -0.00759125 -0.0958659 -0.0841217 -0.0680949 -0.0883179 -0.0705872 -0.0925522 -0.00679016 0.095787 0.133881 0.141388 0.136078 0.142471 0.14476 0.143425 0.14119 0.141464 0.142471 0.139587 0.141891 0.140213 0.141327 0.140045 0.138382 0.142044 0.134216 0.142365 0.136818 0.0690536 -0.0396118 -0.0398407 -0.0615463 -0.0609436 0.0544128 0.153885 0.14151 0.151047 0.144989 0.147636 0.143539 0.147797 0.145065 0.142761 0.148026 0.142822 0.142532 0.153923 0.144966 0.152222 0.151026 0.148987 0.155365 -219.253 -219.253 -219.253 -219.253 -0.0293427 -0.086319 -0.0685959 -219.253 -0.0804443 -0.0219345 0.0795059 0.148163 -219.253 -219.253 -219.253 -219.253 -219.253 -219.253 -219.253 -219.253 -219.253 -219.253 -219.253 -219.253 -219.253 -219.253 0.356323 0.223785 0.11776 0.0772552 0.0460968 -0.019104 -0.0129242 -0.0236282 0.00115204 0.0448151 0.0970993 -219.253 -219.253 -219.253 -219.253 -219.253 -219.253 -219.253 -219.253 -219.253 -219.253 -219.253 -219.253 -219.253 -219.253 -219.253 0.493889 0.178467 0.0629578 0.10734 0.0553055 0.00669098 -0.0318604 0.0216166 0.000938416 0.0213928 -0.0109812 -0.00614929 0.00185394 -0.0133057 0.0380173 0.0116272 -0.0140152 -0.0209732 -0.0159912 -0.0206375 -0.0355988 -0.0108261 -0.00901794 -0.0115891
-219.253 0.080719 0.107613 0.108292 0.0479507 -219.253 -0.104568 -0.0725479 -0.0543518 -0.132149 -0.036087 -0.106033 0.0104446 0.0704956 0.148293 0.221069 -219.253 -219.253 -219.253 -219.253 -219.253 -219.253 -219.253 -219.253 -219.253 -219.253 -219.253 -219.253 -219.253 -219.253 -219.253 -219.253 0.141342 -219.253 -0.0812149 -0.0906601 -0.0621109 -0.0784378 0.000478109 0.150645 0.212723 -219.253 -219.253 -219.253 -219.253 -219.253 -219.253 -219.253 -219.253 -219.253 -219.253 -219.253 -219.253 -219.253 -219.253 -219.253 -219.253 0.213364 0.110794 -0.0156809 -0.0924301 -0.0745087 -0.0773087 -0.0937449 -0.06884 -0.0891266 -0.0784912 0.0727905 0.141914 0.141968 0.143448 0.139 0.140823 0.142235 0.143021 0.139069 0.142151 0.142212 0.142822 0.144104 0.142204 0.140366 0.140991 0.138687 0.141022 0.14183 0.136719 0.0304413 -0.0402679 -0.0406952 -0.0835724 -0.044136 0.0588226 0.15036 0.146645 0.143158 0.142273 0.146393 0.141998 0.144081 0.144913 0.145508 0.14621 0.146172 0.14534 0.146828 0.151245 0.147858 0.153976 0.149475 0.159119 -219.253 -219.253 -219.253 -219.253 -0.070694 -0.0345764 -0.0695496 -219.253 -219.253 -0.0205078 0.0178528 0.166412 0.183228 -219.253 -219.253 -219.253 -219.253 -219.253 -219.253 -219.253 -219.253 -219.253 -219.253 -219.253 -219.253 -219.253 0.383046 0.249275 0.118546 0.120274 0.0573959 -0.0164032 -0.0379181 0.024559 -0.0118205 0.013092 0.111109 -219.253 -219.253 -219.253 -219.253 -219.253 -219.253 -219.253 -219.253 -219.253 -219.253 -219.253 -219.253 -219.253 -219.253 -219.253 0.45502 0.202057 0.120525 0.110804 0.0531006 -0.0245667 -0.00217438 0.00619507 0.0074234 0.00114441 -0.00364685 -0.00535583 0.00423431 -0.0128403 0.00861359 -0.000518799 0.0247879 -0.00960541 0.0168915 -0.000984192 -0.0281677 0.000995636 -0.0406647 -0.0352936
-219.253 0.0985031 -219.253 0.113068 0.0317535 -0.0142975 -219.253 -0.134659 -0.114746 -0.0971756 -0.112999 -0.121193 -0.0174103 0.104401 0.174622 0.290532 -219.253 -219.253 -219.253 -219.253 -219.253 -219.253 -219.253 -219.253 -219.253 -219.253 -219.253 -219.253 -219.253 -219.253 -219.253 0.230423 0.167336 0.0274506 -0.0817668 -0.0865631 -0.0517883 -0.111763 0.0730743 0.0724487 0.208244 0.335983 -219.253 -219.253 -219.253 -219.253 -219.253 -219.253 -219.253 -219.253 -219.253 -219.253 -219.253 -219.253 -219.253 -219.253 0.301346 0.158554 0.0722351 -0.0056839 -0.0750885 -0.0758362 -0.0777893 -0.0915909 -0.0829391 -0.0897064 0.000663757 0.0409317 0.133316 0.141357 0.142685 0.141602 0.141907 0.145355 0.142365 0.150269 0.145721 0.143059 0.145737 0.141235 0.14238 0.141541 0.139778 0.139984 0.134247 0.140701 0.134888 0.084727 -0.0631104 -0.0245209 -0.0533218 -0.0595398 0.0713806 0.148041 0.14209 0.149979 0.145111 0.143021 0.143036 0.142746 0.145462 0.138794 0.147942 0.146622 0.146378 0.15126 0.147125 0.151184 0.152893 0.153595 0.158318 0.149277 0.161636 -219.253 -0.0874023 -0.0677795 -0.0309957 -0.0566864 -0.0801773 -0.079071 -0.0701523 0.0343323 0.168259 0.186722 -219.253 -219.253 -219.253 -219.253 -219.253 -219.253 -219.253 -219.253 -219.253 -219.253 -219.253 -219.253 -219.253 0.397379 0.25486 0.190287 0.122276 0.0617294 -0.02034 -0.0206604 -0.0254745 -0.0475922 -0.00239563 0.130661 -219.253 -219.253 -219.253 -219.253 -219.253 -219.253 -219.253 -219.253 -219.253 -219.253 -219.253 -219.253 -219.253 -219.253 -219.253 0.482156 0.204041 0.147095 0.104599 0.0552826 -0.00601196 -0.000579834 -0.00783539 0.0316925 0.0317841 0.00504557 0.00653076 -0.019577 0.0171661 0.0144577 -0.0075531 0.0281779 -0.0112381 -0.00895691 -0.0241394 -0.00971476 -0.0448456 -0.0285187 -0.0167084
-219.253 0.104588 0.126511 0.0958405 0.0489451 -0.042366 -0.113358 -0.09935 -0.110565 -0.0879974 -0.0512543 -0.101158 -0.0189514 -219.253 0.183064 0.342407 -219.253 -219.253 -219.253 -219.253 -219.253 -219.253 -219.253 -219.253 -219.253 -219.253 -219.253 -219.253 -219.253 -219.253 -219.253 0.230118 0.147873 0.0263214 -219.253 -0.102849 -0.111542 -0.0862528 -0.0223923 0.119957 0.290848 0.438202 -219.253 -219.253 -219.253 -219.253 -219.253 -219.253 -219.253 -219.253 -219.253 -219.253 -219.253 -219.253 -219.253 -219.253 -219.253 0.196986 0.0782928 0.00172424 -0.0632121 -0.0765076 -0.0779877 -0.0972748 -0.0458298 -0.0775146 0.00739288 0.0767975 0.135651 0.141106 0.142853 0.140472 0.144897 0.143326 0.145897 0.142395 0.142639 0.143265 0.141861 0.146652 0.143456 0.140259 0.145493 0.140411 -219.253 0.140945 0.135956 0.0924835 -0.0418549 -0.0545247 -0.0595932 -0.0562744 0.0584793 0.137611 0.143738 0.147049 0.14389 0.145287 0.143326 0.144928 0.143326 0.146881 -219.253 0.143173 0.144745 0.151886 0.149826 0.148026 0.151108 0.152054 -219.253 0.156395 0.154007 0.0924225 -0.0456543 -0.0659332 -0.0541789 -0.0613098 -0.0547333 -219.253 -219.253 0.0273819 0.150375 0.240031 -219.253 0.287003 -219.253 0.508224 -219.253 -219.253 -219.253 0.590164 0.477819 0.480194 0.611954 0.443546 0.452118 0.435376 0.421692 0.244727 0.0830943 0.0623856 0.0221405 -0.0127029 -219.253 0.00618744 -0.00444031 0.129494 0.205917 0.575508 0.584381 0.45134 -219.253 0.344437 0.446396 0.436681 0.587982 0.511559 0.374207 -219.253 0.585022 0.465912 0.565804 0.467388 0.419174 0.141291 0.110469 0.0524826 0.0144196 -0.0149765 -0.0167542 0.00926971 0.00738525 0.00691223 0.0253143 -0.00296021 -0.0164261 0.0305328 0.0146942 0.00376892 -0.0151571 -0.0246735 -0.0147476 -0.0133514 0.00349935 -0.0318832 -0.0345001
-219.253 0.103958 0.101341 0.102905 -219.253 -0.0483246 -0.0521393 -0.0957794 -0.129486 -0.0949097 -0.124252 -0.121379 -0.0857239 0.0535329 0.150238 0.433038 0.377157 0.393559 0.424271 0.427612 0.475911 0.394489 0.391911 0.393425 0.43663 0.398975 0.385956 0.399335 0.362213 0.385958 0.381552 0.263733 0.112045 0.0213928 -0.0794067 -0.0712585 -0.0699005 -0.0899963 0.00617218 0.0923233 0.203392 0.470787 0.425092 0.420764 0.440524 0.429891 0.389476 0.396538 0.402944 0.414525 0.396088 0.404385 0.404648 0.391415 0.456738 0.398514 0.359863 0.232056 0.111847 -0.0136185 -0.0568085 -0.095932 -0.0724487 -0.0431061 -0.0586039 -0.0853729 -0.0509593 0.0685577 0.138374 0.146698 0.140381 0.141922 0.143494 0.147491 0.144623 0.143066 0.147827 0.144112 0.1492 0.143051 0.144356 0.142426 0.142197 0.14447 0.141327 -219.253 0.137405 0.0465393 -0.0413971 -0.0650482 -0.0812988 -0.0436707 0.0191956 0.125717 0.140388 0.142242 0.145874 0.140068 0.146423 0.141586 0.145508 0.147095 0.152878 0.147385 0.147842 0.149216 0.147247 0.154602 0.151558 0.150269 0.159325 0.155823 0.129433 0.0283356 -0.0574722 -0.0666046 -0.0551605 -0.00788371 -0.0602417 -0.0677948 -219.253 0.0347443 0.150772 0.271278 0.264076 -219.253 0.228699 0.202026 0.235947 -219.253 -219.253 -219.253 0.380885 0.455479 0.416635 0.42152 0.428543 0.438581 0.371059 0.20816 0.0851237 0.077179 -0.0151672 -0.00856781 -0.00926208 -0.0174154 0.00315857 0.124405 0.233139 -219.253 0.27951 0.47493 0.305328 -219.253 0.290222 -219.253 0.314583 0.53035 0.327606 -219.253 0.296692 0.214729 0.317139 0.455157 0.340904 0.128326 0.0859299 0.0804749 0.0179698 0.00461578 -0.0017395 -0.00782267 0.00602722 -0.0166931 0.0121918 0.00704956 -0.0171432 0.000823975 0.0112 0.00839996 0.028656 -0.00314331 0.00157928 -0.0123444 -0.0176544 0.00189209 0.000694275
0.16098 0.100822 0.126022 0.109192 0.0416209 -0.0469818 -0.121101 -0.102806 -0.108643 -0.136353 -0.123779 -0.0629272 -0.0222321 0.0723012 0.271393 0.27535 0.210548 0.248161 0.254349 0.210556 0.270966 0.305984 0.206568 0.254257 0.262299 0.202431 0.254506 0.194275 0.250519 -219.253 0.264099 -219.253 0.157738 0.00611877 -0.0809784 -0.0894318 -0.0977478 -0.0678711 -0.021169 0.115799 0.292791 0.214771 0.209274 0.26461 0.223083 0.209461 0.229088 0.25322 0.23909 0.23215 0.212687 0.270485 0.235817 0.148193 0.23093 0.255478 0.2365 0.194221 0.0832672 0.0105896 -0.0702515 -0.0606232 -0.0666962 -0.0846939 -0.0884705 -0.0535965 -0.00797017 0.0598145 0.14444 0.136688 0.146011 0.161163 0.149261 0.135269 0.163246 0.122726 0.172867 -219.253 0.169815 0.143204 0.184677 0.153549 0.148651 0.147568 -219.253 0.140427 0.159775 0.0684891 -0.0533066 -0.0823212 -0.0249252 -0.0146434 0.0168152 0.105993 0.137802 0.157471 0.157883 0.1427 0.156342 0.153999 0.177361 0.216583 0.163132 0.199585 0.161926 0.145248 0.171616 0.173386 0.155197 0.16571 0.163376 0.189857 0.140981 0.0182037 -0.0604248 -0.0265656 -0.0422923 -0.0171432 -0.0325267 -0.0582428 -0.0274353 0.0553741 0.187912 0.218685 0.18943 0.147655 0.217361 0.183914 0.231998 -219.253 -219.253 0.246201 0.283727 0.246635 0.273608 0.32254 0.317757 0.388197 0.247948 0.206337 0.0818278 0.0574837 -0.0126801 -0.00927734 -0.020752 -0.0428467 -0.00540161 0.12766 0.248901 0.226846 0.362137 0.344355 0.392054 0.414584 0.369038 0.468018 0.426785 0.455681 0.435389 0.457682 0.441616 0.370074 0.405506 0.342819 0.273248 0.255356 0.00721741 0.0663376 0.0123291 -0.0351868 -0.0086441 -0.00154114 0.00306702 -0.00333659 -0.0096283 0.00305939 -0.0227814 0.00723267 -0.0265656 0.0165863 -0.000434875 -0.00408936 -0.00915527 -0.0038147 0.0271505 -0.00578308 0.0213242
-219.253 0.0834427 0.138191 0.100723 0.0465469 -0.0139465 -0.0698318 -0.0991821 -0.0423279 -0.0726929 -0.104355 -0.100105 -0.0179392 -0.00692749 0.195084 0.118005 0.148249 0.17687 0.197464 0.115326 0.125443 0.178272 0.181203 0.116173 0.160497 0.150513 0.13588 0.148666 0.145828 0.199776 0.139526 0.140572 0.153694 0.0236664 -0.0798264 -0.0478973 -0.0903473 -0.109756 -0.0139923 0.139122 0.252579 0.125145 0.202235 0.127457 0.147156 0.220909 0.149632 0.140076 0.124062 0.0566254 0.153819 0.167536 0.15012 0.17173 0.0973694 0.151868 0.118708 0.0883484 0.0605469 -0.0398254 -0.0789439 -0.0679321 -0.0629578 -0.0662079 -0.0939331 -0.0637817 -0.0670624 0.112 0.165146 0.140198 0.194031 0.14505 0.177078 0.165588 0.137833 0.113841 0.129812 0.127939 0.133888 0.132421 0.130458 0.181498 0.112724 0.186915 0.116343 0.209437 0.138321 0.140518 -0.0516205 -0.0568848 -0.0364431 -0.0574036 0.0582962 0.157191 0.144073 0.164922 0.149841 0.151459 0.135202 0.148087 0.115379 0.15168 0.13768 0.140086 0.157028 0.166595 0.140167 0.169582 0.134254 0.128627 0.201172 0.151855 0.123699 0.032196 -0.0566406 -0.0324783 -0.0404587 -0.0517883 -0.0628967 -0.0339203 -0.0401917 0.0698903 0.161068 0.134061 0.140615 0.168182 0.1604 0.126511 0.144768 0.148534 0.196289 0.125509 0.209564 0.184021 0.100393 0.186081 0.146446 0.138821 0.0979614 0.172394 0.0934041 0.0511131 -0.0136414 -0.017128 -219.253 -0.0123494 0.119576 0.154409 0.130943 0.160187 0.142537 0.181452 0.0566457 0.103958 0.0271072 0.132011 0.224205 0.207764 0.121506 0.109524 0.192101 0.110443 0.198827 0.147003 0.185047 0.148346 0.106972 0.0408173 -0.0207367 0.000762939 0.0201619 0.00776672 -0.00332642 -0.00535583 -0.00141907 -0.0111847 -0.00293732 0.0326614 -0.00595856 0.0100555 0.0173035 -0.00479126 0.000244141 0.0212021 0.00483704 0.000320435 0.00872294
-219.253 0.135696 0.14505 0.0991135 0.0541992 -0.0149994 -0.103584 -0.09375 -0.070694 -0.101944 -0.102936 -0.0973206 -0.014122 0.0865479 0.0863647 0.0208511 0.0392761 -219.253 0.0444092 0.0353432 0.0816422 0.0763702 0.0599442 0.0593414 0.0263977 0.00937907 0.0327504 0.0407791 0.0398305 0.0615616 0.0284958 0.0487137 0.0670227 -0.0226288 -0.0547867 -0.110352 -0.0759735 -0.0862376 0.0386749 0.0483856 0.0674324 0.100906 0.0398102 0.00835673 0.010498 0.0631866 0.0733566 0.0114746 -0.00415802 0.113581 0.0303764 0.016861 0.025225 0.0433502 0.0372505 0.0313721 0.0331909 0.0180664 0.0206401 -0.0273437 -0.0725708 -0.0352325 -0.0890808 -0.037262 -0.0461426 -0.0918427 -0.0370178 0.0511729 0.0462341 0.0454636 0.0647888 0.0275917 0.0799306 0.0651932 0.080363 0.0658112 0.0732155 -0.0403595 0.0636139 0.0637156 0.0374107 0.0561142 0.0249405 0.063207 0.0441246 0.0155233 0.0547129 0.0379791 -0.0450592 -0.0597534 -0.077301 -0.057312 0.0103404 -0.00842794 0.0682373 0.0791664 0.0420799 0.00012207 0.0635529 0.0340805 0.0387675 0.00389608 -0.00173442 0.0573006 0.031002 0.0263786 0.0568695 0.0252953 0.058431 0.0291519 0.0191498 0.0976156 0.0425377 0.0264282 -0.0574646 -0.0499725 -0.0503235 -0.00834656 -0.0250346 -0.0185852 0.0235062 0.0166626 0.0387828 0.0154266 0.0729828 0.0203196 0.0674133 0.0155843 0.0397034 0.0406952 -0.0115 0.0577011 0.0562795 0.0806732 0.0573883 0.0413564 0.100769 0.0186195 0.0297394 0.0472514 0.04422 0.0192032 0.0215759 -0.0270081 -0.0063858 0.0544942 0.048851 0.0665487 0.0270182 0.0434875 0.0220896 0.0583343 0.0488637 0.0404663 0.0491231 0.0197182 0.107971 0.110146 0.0882161 0.0498657 0.115997 0.135808 0.0430107 0.132263 0.0301361 0.0635376 0.0675964 0.0424906 0.0255737 0.0010376 -0.0103302 -0.0026652 0.0419464 0.016098 -0.0111771 0.00699615 0.024147 -0.0135803 0.0226059 0.0583191 0.0174561 0.019783 0.00283051 -0.00192261 0.00858053 -0.00537109 0.0221939
-219.253 0.132156 0.133812 0.111389 0.0286636 -0.0452347 -0.121414 -219.253 -0.125397 -0.0736084 -219.253 -0.103226 -0.0736389 -0.0197398 -0.0319417 -0.0797501 -0.0306651 -0.0366333 -0.0531006 -0.0257212 -0.092926 -0.0730082 -0.060498 -0.0332642 -0.0274048 -0.0233866 -0.0777039 -0.0159403 -0.0760498 -0.0572001 -0.0575714 -0.0604197 -0.0309347 -0.0419891 -0.0762329 -0.0880737 -0.0622482 -0.0812531 -0.0234782 -0.0864054 -0.0664266 -0.0317383 -0.0494537 -0.0388222 -0.0826263 -0.0602341 -0.0496429 -0.0912018 -0.0749817 -0.0582021 -0.0911636 -0.07547 -0.0967814 -0.0692851 -0.0868174 -0.029129 -0.0343246 -0.0490417 -0.0068512 -0.025856 -0.0703735 -0.0758514 -0.0722402 -0.0695343 -0.0682831 -0.0720825 -0.0405426 0.00997162 -0.0200806 -0.0487709 -0.0503489 -0.0290019 -0.025528 -0.0923767 -0.0463905 -0.0362854 -0.0321198 0.024498 -0.000762939 -0.0543976 0.00382233 -0.0486654 0.00636292 -0.0392507 0.00176239 -0.0462138 -0.049202 -0.0451202 -0.0420189 -0.0632324 -0.0436096 -0.0574646 -0.0376663 -0.0413208 -0.0639903 -0.0492859 0.00975037 -0.0137062 -0.0496572 -0.061203 -0.0200729 0.000366211 -0.0166473 -0.0123494 -0.0175705 -0.0190506 -0.00831604 -0.26531 -0.0605164 -0.0235519 -0.162483 -0.010067 -0.3207 -0.231598 -0.399632 -0.0533752 -0.0378571 -0.0587921 -0.0208282 -0.0433884 -0.0198593 -0.0443115 -0.0480728 0.000396729 -0.0345154 -0.0289917 -0.0168304 0.00660706 0.00396729 -0.0252304 -0.0327759 -0.0172984 -0.0119324 -0.0240479 -0.0265045 -0.0293961 0.00438944 -0.0116653 0.0160446 -0.0257823 -0.0225525 0.0293274 -0.0261688 -0.0327759 -0.0106506 -0.0115662 0.0349884 0.00833893 -0.0148849 0.0119247 -0.000793457 -0.0231934 -0.0179214 0.0389404 -0.0264384 0.00325012 0.0119476 0.03479 0.0232086 0.00564575 -219.253 0.0413055 0.00898743 0.0413055 0.0059433 0.0127106 0.0240631 -0.0204163 0.00665283 -0.0261383 0.00375366 0.0118815 0.0271378 0.00255839 -0.0137482 0.0112228 -0.00440979 -0.020752 0.0212402 0.0109762 0.0161285 0.019455 -0.00271606 0.00256348 -0.000984192 0.00758362 0.0208842
-219.253 0.109505 0.149109 0.0880432 0.0458984 -0.0373128 -0.121742 -0.0896606 -0.107338 -0.121765 -0.111008 -0.115318 -0.11026 -0.124374 -0.11731 -0.123856 -0.112854 -0.0719452 -0.0913086 -0.116196 -0.108749 -0.118469 -219.253 -0.0717468 -0.109047 -0.0902023 -0.0943832 -0.114944 -0.113396 -0.10405 -0.111237 -0.0961355 -0.114441 -0.0740509 -0.0635147 -0.0898895 -0.0609055 -0.0952911 -0.0887756 -0.104996 -0.075882 -0.0625 -0.0889359 -0.0731964 -0.0935211 -0.0690765 -0.0847778 -0.0611013 -0.0868937 -0.0922241 -0.0921555 -0.0543518 -0.0681 -0.0851593 -0.0720825 -0.0842896 -0.0526123 -0.0893555 -0.0813522 -0.0547841 -0.0915222 -0.0271047 -0.0677999 -0.0733032 -0.0764923 -0.0704142 -0.385479 -0.441115 -0.346115 -0.387056 -0.397482 -0.429488 -0.402335 -0.354794 -0.360109 -0.349191 -0.421721 -0.352391 -0.427722 -0.427852 -0.380794 -0.424507 -0.37032 -0.394397 -0.404298 -0.397389 -0.384457 -0.452326 -0.373416 -0.0208511 -0.0546265 -0.0788269 -0.47035 -0.348987 -0.417276 -0.48698 -0.414656 -0.393009 -0.376394 -0.389246 -0.381895 -0.374127 -0.413124 -0.324345 -0.497061 -0.38967 -0.407535 -0.350255 -0.408024 -0.456365 -0.367083 -0.360191 -0.331866 -0.401483 -0.340221 -0.0342026 -0.0515289 -0.0512085 -0.0561676 -0.0421906 -0.0503947 -0.0140152 -0.0366364 -0.0148468 -0.0276184 -0.0267944 -0.0289383 -0.0132751 -0.0159556 -0.0178833 -0.0218048 -0.0366974 -0.0353394 -0.0135422 -0.0296631 -0.00805664 -0.0239868 -0.0203196 -0.0186615 -0.025383 -0.0280762 -0.0280151 -0.0288086 -0.0133438 -0.0241089 -0.0198822 -0.0230331 -0.0151367 0.00609334 -0.00881195 -0.0203323 -0.0204468 -0.00605774 -0.0375214 -0.0418396 -0.00996399 0.0134277 0.00645447 -0.00253296 0.0118561 -0.0349655 0.0126495 0.0197144 -0.012558 0.0148315 -0.0155182 -0.0227356 -0.00650024 -0.023468 -0.00158691 -0.0114441 -0.000966389 -0.00349426 -0.00167847 -0.00387573 0.0104599 -0.0140686 0.0292969 0.0285797 0.00532532 0.00682068 -0.0289078 -0.0185649 -0.0179443 -0.00527191 -0.00776672 0.00662994
0.171295 -219.253 0.120249 0.122208 0.0289917 -0.0811462 -219.253 -0.0664444 -0.111816 -0.0615387 -0.105797 -0.122635 -0.108971 -0.126465 -0.119522 -0.0724487 -0.0906143 -0.0926666 -219.253 -0.0732829 -0.104477 -0.0763092 -0.0960948 -0.111893 -0.0902214 -0.107773 -0.110326 -0.0951691 -0.0554733 -0.111084 -0.0743332 -0.106415 -0.0979462 -0.065094 -0.105408 -0.0936432 -219.253 -0.0669861 -0.0604172 -0.0939026 -0.0784912 -0.078949 -0.0570068 -0.0606232 -0.073171 -0.0831401 -0.0423584 -0.0740509 -0.0812378 -0.092453 -0.078598 -0.0873489 -0.0740356 -0.0770721 -0.0820669 -0.0831604 -0.0911102 -0.0460358 -0.0628967 -0.0601501 -0.0735016 -0.0601807 -0.0829468 -0.0831451 -0.0679245 -0.0816498 -0.680542 -0.681915 -0.679886 -0.678406 -0.680435 -0.679901 -0.680252 -0.679764 -219.253 -0.677719 -0.680786 -0.678741 -0.679146 -0.676941 -0.678665 -0.678391 -0.678528 -0.672424 -0.678177 -0.674957 -0.675964 -0.680191 -0.39208 -0.021431 -0.0609894 -0.0608673 -0.679276 -0.678116 -0.678513 -0.679359 -0.676468 -0.675125 -0.675156 -0.675217 -0.676575 -0.674362 -0.67128 -0.674606 -0.674622 -0.673294 -0.674469 -0.674973 -0.673019 -0.674744 -0.673019 -0.677063 -0.670807 -0.675415 -0.341785 -0.0350494 -0.0464096 -0.0511017 -0.0419998 -0.0459366 -0.030159 -0.0383911 -0.0307693 -0.0310516 -0.0253067 -0.0268097 -0.042511 0.0190659 -0.0173798 -0.0161133 -0.0225067 0.0144119 -0.0247498 -0.0231171 -0.0249329 -0.0315399 -0.0244446 -0.0275472 -0.026947 -0.0291494 -0.0249023 -0.0181732 0.0184402 -0.0368652 -0.0132751 -0.0125732 0.00338745 -0.00535583 -0.0234146 0.00644684 -0.0234528 -0.0304565 0.00500488 -0.00939941 -0.0154953 -0.0174332 0.0110779 0.00186157 -0.00776672 0.00538635 0.00385284 -219.253 0.0056661 0.0130157 -0.00285339 -0.0226593 0.000915527 -0.00492096 -0.0191345 -0.0262604 -0.00592804 -0.0245514 -0.00706482 0.00640106 0.0246506 0.00592041 0.00932312 0.0110397 -0.000366211 0.0275523 -0.0392609 0.0109863 0.00280762 -0.0292664 -0.0347443 -0.00863647 0.00304413
-219.253 0.13596 0.104309 0.106145 0.0465164 -0.0474701 -0.109924 -0.097758 -219.253 -0.10438 -0.075386 -0.0804291 -0.0786743 -0.0599213 -0.0875092 -0.0767212 -219.253 -219.253 -0.0764008 -0.0733643 -219.253 -0.0276337 -219.253 -0.0954742 -219.253 -219.253 -0.0724487 -219.253 -219.253 -0.0430756 -0.0698242 -219.253 -0.037735 -219.253 -0.0917358 -0.0672302 -0.0738525 -0.0874685 -219.253 -0.0548706 -0.0363693 -219.253 -219.253 -0.0301819 -219.253 -219.253 -219.253 -219.253 -219.253 -219.253 -219.253 -0.0145264 -219.253 -219.253 -219.253 -219.253 0.00257874 -219.253 -219.253 -219.253 -0.083786 -0.0722351 -0.0875244 -0.061142 -0.0415039 -0.0895157 -0.681778 -0.678757 -0.676178 -0.680527 -0.680664 -0.679016 -0.680099 -0.67717 -0.682617 -0.679626 -0.674568 -0.681091 -0.674652 -0.678543 -0.676117 -0.675095 -0.675934 -0.67746 -0.675949 -0.678909 -0.676041 -0.675331 -0.351958 -0.0584564 -0.0631485 -0.0925751 -0.673706 -0.676193 -0.673691 -0.675888 -0.672867 -0.676224 -0.675041 -0.672592 -0.675903 -0.672974 -0.674034 -0.6772 -0.673622 -0.672531 -0.66993 -0.672974 -0.680557 -0.669266 -0.673347 -0.67009 -0.671783 -0.671333 -0.351312 -0.016716 -0.049324 -0.0316544 -0.0468597 -0.0473022 -0.006073 0.0552063 -219.253 -0.0202637 -0.0196991 -0.019043 0.00779724 -0.0058136 -0.0198669 -0.014679 -0.013588 -0.0198364 -0.0120392 -0.013298 -0.0139618 0.00398254 -0.0167236 -0.0146942 -0.0153351 0.00182343 -0.0155487 -0.00836182 -0.000595093 -0.016154 -0.0075531 -0.0113118 0.00273132 0.0457382 -0.0150452 0.0113373 -0.00382996 -0.00189209 0.0113373 0.013504 0.0238647 0.0128326 -219.253 0.00872803 0.00752258 0.0187073 0.123169 0.0140457 -219.253 -219.253 -219.253 0.0158997 0.0227661 0.0385284 -0.0166779 -0.00765228 -0.00965881 -0.00325012 -0.00367737 -0.00301107 -0.00221252 0.0136337 -0.0135574 0.0172653 0.00171661 -219.253 -0.014445 -0.0207825 -0.0203629 -0.0267639 -0.0269623 -0.00598653 -0.0140381
-219.253 0.0940247 0.0988159 0.105202 0.0674133 -0.0543137 -0.073761 -0.0999552 -0.105591 -0.0969391 -0.104294 -0.105108 -0.00418854 -219.253 -219.253 -219.253 0.0640869 -219.253 -219.253 -219.253 0.0918121 -219.253 -219.253 -219.253 -219.253 -219.253 -219.253 -219.253 -219.253 -219.253 -219.253 -219.253 -219.253 -0.00273132 -219.253 -0.0791092 -0.0901871 -0.0677389 0.0191116 -219.253 -219.253 -219.253 -219.253 -219.253 -219.253 -219.253 -219.253 -219.253 -219.253 -219.253 -219.253 -219.253 -219.253 -219.253 0.114227 -219.253 -219.253 -219.253 0.0899048 -0.00373077 -0.0519753 -0.0762024 -0.0791321 -0.0743027 -0.0650253 -219.253 -0.675827 -0.676102 -0.677155 -0.675812 -0.679031 -0.676956 -0.679688 -0.679581 -0.691696 -0.676849 -0.679695 -0.67749 -0.681503 -0.674515 -0.681381 -0.675972 -0.679184 -0.675583 -0.677597 -0.676819 -0.674744 -0.676338 -0.347769 -0.0733643 -0.0641251 -219.253 -0.6745 -0.672638 -0.673706 -0.670303 -0.671722 -0.675339 -0.669518 -0.672821 -0.67218 -0.675003 -0.668777 -0.670868 -0.675484 -0.670044 -0.672737 -0.672684 -0.6689 -0.672089 -0.670013 -0.668808 -0.667625 -0.670761 -0.332235 -0.0464172 -0.0298869 -0.0258484 -0.0544128 -219.253 -0.0272827 0.0565643 0.17366 0.175644 0.178864 0.193741 0.183136 0.148445 0.198166 0.185318 0.204315 0.19355 0.17453 0.18528 0.197906 0.0456085 0.194244 0.188766 0.192932 0.208656 0.0993449 0.0669479 0.0204417 -0.0148621 0.00350952 -0.0208028 0.0169067 0.16452 0.151245 0.190231 0.179138 0.203598 -219.253 0.21875 0.189629 0.200943 -219.253 0.190292 -219.253 -219.253 0.209213 -219.253 0.207952 0.236069 0.183472 0.119865 0.098114 0.0688324 -0.0154572 -0.00239563 -0.0100555 0.0209656 -0.00491333 0.00701141 -0.0147858 0.0309041 -0.0157776 -0.011673 -0.00539398 -0.00533295 -0.0147018 -0.00788879 -0.0164948 -0.0101166 -0.00855255 -0.0311508 -0.0321655
-219.253 0.119186 0.156835 0.0938263 0.0509644 -0.0203705 -0.120605 -219.253 -0.106415 -0.0855408 -219.253 -0.0486069 -0.0791931 0.103416 0.120783 -219.253 0.13121 0.122391 0.130882 0.133896 0.128868 0.13047 0.133102 -219.253 0.133102 0.134575 0.133962 0.126033 0.138397 0.139709 0.138519 0.136297 0.0898361 0.0128937 -0.0538406 -0.0761871 -0.0630798 -0.0589447 0.0106303 0.114166 0.137563 0.148163 0.144775 0.149551 0.143082 0.150982 0.148453 0.148888 0.150139 0.1518 0.150665 0.149796 0.152028 0.156082 0.153931 0.157051 0.153051 0.153282 0.104355 0.0327988 -0.0533752 -0.0711212 -0.0812454 -0.0672455 -0.0426992 -219.253 -219.253 -0.679184 -0.673309 -0.67691 -0.678736 -0.677856 -0.678703 -0.675537 -0.6745 -0.677261 -0.673141 -0.677216 -0.673851 -0.677704 -0.677032 -0.674255 -0.672318 -0.675568 -0.672661 -0.669189 -0.673309 -0.672195 -0.401401 -0.0652771 -0.0628967 -219.253 -0.662979 -0.674194 -0.670059 -0.666702 -0.672134 -0.67041 -0.671616 -0.671707 -0.670609 -0.675369 -0.670601 -0.675339 -0.67424 -0.670517 -0.673416 -0.668625 -0.67099 -0.668106 -0.672928 -0.665222 -0.668854 -0.66481 -0.366238 -0.0419769 -0.0158437 -0.0203934 -0.0522156 -0.0490036 -0.00465393 0.0885111 0.173256 0.179062 0.175537 0.207047 0.199142 0.209 0.198359 0.205917 0.208862 0.190147 0.208344 0.195068 0.192947 0.209496 0.208282 0.198573 0.199005 0.190918 0.0833244 0.0688858 0.0276896 -0.0329132 0.00717163 -0.0352402 0.121559 0.177078 0.202126 0.198532 0.211143 0.204773 0.23111 0.233337 0.216572 0.209869 0.215027 0.206619 0.246674 0.210419 -219.253 0.242905 0.21843 0.220131 0.214005 0.133977 0.159401 0.0534286 -0.0104675 0.00576019 -0.000839233 0.00125122 -0.00756836 0.014267 -0.00935364 0.0163269 -0.0121231 0.00816345 -0.00120544 0.0745544 -0.00765991 -0.0149841 -0.0109507 -0.0239716 -0.00314331 -0.0267487 0.00837199
-219.253 0.1119 0.106003 0.0907288 0.0399857 -0.0169449 -0.0953598 -0.0836487 -0.106654 -0.117241 -0.0838674 -0.0973053 -0.0301361 0.1138 -219.253 0.124229 0.131233 0.130798 0.13443 0.132568 0.130569 0.134094 0.136063 0.13662 -219.253 0.135788 0.135246 0.138107 0.139247 0.140533 0.134903 0.142708 -219.253 0.0170492 -0.099762 -0.10318 -0.0970306 -0.0907288 0.0761261 0.114136 0.145638 0.150635 0.14798 0.149124 0.148102 0.146027 0.150253 0.153305 0.149124 0.150848 0.154297 0.153847 0.155396 0.155518 0.153732 0.155029 0.154465 0.155426 0.0936737 0.0154724 -0.0753326 -219.253 -0.0764313 -0.0831833 -0.0885162 -0.587532 -0.69558 -0.700043 -0.697716 -0.700623 -0.710088 -0.707703 -0.701088 -0.70723 -0.722824 -0.67865 -0.695877 -0.705338 -0.712509 -0.696213 -0.707565 -0.694372 -0.715042 -0.704025 -0.703888 -0.69944 -0.697632 -0.696533 -0.38463 -0.289332 -0.0264893 -0.550934 -0.702408 -0.711105 -0.700378 -0.687126 -0.705856 -0.704025 -0.687871 -0.707993 -0.68811 -0.705078 -0.721115 -0.690018 -0.71225 -0.705299 -0.710342 -0.696243 -0.714828 -0.698898 -0.706017 -0.70034 -0.6996 -0.702235 -0.50983 -0.329807 -0.0491409 -0.0475616 -0.0152435 -0.0399323 -0.0195923 0.0804443 0.173775 0.179535 0.195 0.203537 0.198158 0.210266 0.211723 0.189758 0.206207 0.190491 0.195114 0.206736 0.188095 0.205376 0.208771 0.197088 0.203003 0.188141 0.0806122 0.0630646 -0.0161285 -0.020874 -0.0362854 -0.0391388 0.0126953 0.145355 0.212962 0.201294 0.212977 0.199066 -219.253 0.224609 0.203056 0.21376 0.210897 0.204071 0.221268 -219.253 0.243599 0.243515 0.249664 0.221298 0.201019 0.103371 0.100983 0.0650406 -0.0174866 -0.0223083 -0.00343323 -0.0184097 -0.000579834 0.00642904 0.0343018 0.0142746 -0.00997925 -0.0169983 0.0258942 -0.000228882 -0.0176849 -0.0289459 -0.02314 -0.0184326 -0.0164719 -0.0129242 -0.0288849
-219.253 -219.253 -219.253 0.0975494 0.0546722 -0.0567932 -0.0810852 -0.0891495 -219.253 -0.0912221 -0.109909 -0.0866623 -0.0111542 -219.253 0.124695 0.12645 0.125336 0.132965 0.13356 0.134384 0.135274 0.137131 -219.253 -219.253 0.139626 0.138687 0.137589 0.141159 0.13932 0.141464 0.142044 0.140274 0.0885773 -219.253 -0.0655111 -0.0725403 -0.0273285 -0.104218 0.0539347 0.145874 0.147491 -219.253 0.147507 0.151225 0.149521 0.149467 0.149948 0.14856 0.151611 0.154205 0.153824 0.151733 0.156067 0.153854 0.153839 0.159348 0.162125 -219.253 0.128098 -0.00614166 -0.0584564 -0.0676651 -0.0376358 -0.0683136 -0.081131 -0.734863 -0.725388 -0.735115 -0.72464 -0.732407 -0.731155 -0.723946 -0.73082 -0.737681 -0.733322 -0.72937 -0.724442 -0.736191 -219.253 -0.730743 -0.733322 -0.726807 -0.73967 -0.73027 -219.253 -0.730568 -219.253 -0.727905 -0.727173 -0.339361 -219.253 -0.737 -0.723106 -219.253 -0.733841 -0.727486 -0.729233 -0.717438 -0.725708 -0.720123 -0.727592 -0.72287 -0.719009 -219.253 -0.716248 -219.253 -0.721115 -0.728012 -219.253 -219.253 -219.253 -0.703583 -0.646957 -0.69313 -0.718048 -0.0584869 -0.0291646 -0.0446472 -0.0260391 -0.033371 -0.0287094 0.0501353 0.17112 0.196594 0.20163 0.198334 0.200256 0.208878 0.197225 0.201096 0.204208 0.193695 0.195389 0.202606 0.197731 0.20446 0.20636 0.195755 0.200867 0.184235 0.0895615 0.0861766 -0.0188599 -0.020195 -0.0352783 -0.0382385 0.0196381 0.175598 0.207008 0.20871 0.202675 0.201508 0.217873 0.219055 0.208018 0.202698 0.219872 0.20845 0.195374 0.243927 0.245773 0.24675 0.247406 0.221962 0.198166 0.121201 0.100525 0.0720367 -0.0116119 -0.00500488 -0.00650024 0.00116984 0.00428772 0.0154648 0.00494385 0.00675964 -0.00777435 -0.00952148 0.021698 0.00686137 0.0130157 -0.0187378 -0.000282288 -0.0116882 0.0108414 0.000264486 -0.00143433
-219.253 0.112829 0.132156 0.109261 0.0556641 -0.018692 -0.0689748 -0.0845795 -0.0989532 -219.253 -0.101349 -0.108871 0.0106888 0.0821533 0.127625 0.129333 0.132736 0.131882 0.133835 0.136353 0.125671 -219.253 0.138982 -219.253 0.137901 -219.253 0.13854 -219.253 0.140114 0.142487 -219.253 0.139145 0.126968 0.0121307 -0.0841217 -0.088028 -0.0952225 -0.0760345 0.0240631 0.143219 0.147659 0.149078 0.148056 0.152153 0.149109 0.148804 0.153885 0.152817 0.151054 0.150772 0.151703 0.153763 0.158508 0.152145 0.154449 0.157776 0.159409 0.156891 0.071991 0.014801 -0.0788498 -0.0667877 -0.060257 -0.063736 -0.081131 -219.253 -219.253 -219.253 -219.253 -219.253 -219.253 -219.253 -219.253 -219.253 -219.253 -219.253 -219.253 -219.253 -219.253 -219.253 -219.253 -219.253 -219.253 -219.253 -219.253 -219.253 -219.253 -219.253 -219.253 -0.0291061 -0.0702362 -219.253 -219.253 -219.253 -219.253 -219.253 -219.253 -219.253 -219.253 -219.253 -219.253 -219.253 -219.253 -219.253 -219.253 -219.253 -219.253 -219.253 -219.253 -219.253 -219.253 -0.677444 -0.678696 -219.253 -0.0438843 -0.0476532 -0.0444183 -0.0394592 -0.0424728 -0.0513458 -0.0235367 0.0784225 0.181572 0.204468 0.196114 0.199509 0.179581 0.211212 0.19723 0.199677 0.192154 0.195717 0.208054 0.194756 0.199814 0.205383 0.200073 0.199621 0.199783 0.196396 0.0887451 0.132645 0.00339508 -0.0328522 -0.0131073 -0.0315857 0.125755 0.180323 0.207756 0.224373 0.203819 0.203674 0.196518 0.202583 0.241318 0.202591 0.212947 0.212708 0.218925 -219.253 0.222404 0.241631 -219.253 0.21685 0.196411 0.121338 -219.253 0.0569229 -0.0161591 0.0170288 -0.00794983 0.0032959 -0.00564575 0.00965881 -0.00579834 0.029541 -0.00592804 0.00940704 0.00283813 -0.015213 0.0104065 -0.00668335 -0.00414276 -0.0065918 -0.00252533 -0.00286865 -0.0072937
-219.253 0.147034 0.105408 0.100533 0.0563304 -0.0149231 -0.0881767 -0.098877 -0.0596059 -0.0924683 -219.253 -0.103806 -0.0761261 0.103388 0.129517 0.128372 0.135147 0.132195 0.133392 0.136749 0.135551 0.136513 0.136398 0.136566 0.139389 0.139297 0.138992 0.139763 0.141724 0.143204 0.139732 0.143402 0.0813599 0.0232086 -0.0691376 -0.0891418 -0.090744 -0.0664978 0.0890732 0.123291 -219.253 0.15316 0.150452 0.155647 0.146683 0.149231 0.150177 0.151825 0.151474 0.150681 0.15152 0.15654 0.152298 0.157349 0.153572 0.158432 0.158989 -219.253 0.154938 -0.0166779 -0.0462112 -0.0764618 -0.0538406 -0.0768585 -0.0802307 -219.253 -219.253 -219.253 -219.253 -219.253 -219.253 -219.253 -219.253 -219.253 -219.253 -219.253 -219.253 -219.253 -219.253 -219.253 -219.253 -219.253 -219.253 -219.253 -219.253 -219.253 -219.253 -219.253 -0.0524139 -0.0223312 -0.0625 -219.253 -219.253 -219.253 -219.253 -219.253 -219.253 -219.253 -219.253 -219.253 -219.253 -219.253 -219.253 -219.253 -219.253 -219.253 -219.253 -219.253 -219.253 -219.253 -219.253 -219.253 -219.253 -219.253 -0.0504608 -0.049881 -0.0480957 -0.0148392 -0.00822449 -0.0363007 -0.0341797 0.0544586 0.182393 0.203186 0.197548 0.198715 0.198257 0.204208 0.188148 0.198593 0.208923 0.19278 0.191162 0.206573 0.191086 0.203903 0.198303 0.199387 0.203934 0.185059 0.0934334 0.0730438 0.0273183 -0.0204544 -219.253 -0.0373306 0.102559 0.210442 0.215973 0.20105 0.212883 0.203728 0.220764 0.206429 0.246658 0.205048 0.218272 0.206192 0.216888 0.252869 0.22493 0.250824 0.250519 0.246094 0.205826 0.147939 0.0292358 0.0586243 -0.00167847 -0.000183105 0.009552 0.00432332 -0.00846863 0.0148697 -0.0113525 0.0144196 -0.00951385 -0.0112 0.010643 -219.253 0.00351715 -0.00340271 0.0162608 0.00279236 -0.000709534 -0.00215149 0.0261383
-219.253 0.121986 0.116058 0.126709 0.071228 -0.00973511 -0.0961609 -0.119553 -0.104004 -0.0937347 -0.0891774 -0.112595 -0.0296478 -219.253 0.132172 0.130569 -219.253 0.132467 0.13916 0.13501 0.136963 0.137115 0.136276 0.140602 0.141068 -219.253 0.138863 0.141373 0.141174 0.139984 0.142548 0.140849 0.0876007 -0.0134125 -0.0425491 -0.0928752 -0.0972366 -0.0743154 0.0420532 0.148941 0.146591 0.148346 0.15155 0.152359 0.150024 0.152519 0.151428 0.15033 0.150421 0.157547 0.15126 0.156471 0.157883 0.156342 0.160728 0.157303 0.158646 -219.253 0.12458 0.00713348 -0.077652 -0.0765228 -0.0806427 -0.0769653 -0.0803986 -219.253 -219.253 -219.253 -219.253 -219.253 -219.253 -219.253 -219.253 -219.253 -219.253 -219.253 -219.253 -219.253 -219.253 -219.253 -219.253 -219.253 -219.253 -219.253 -219.253 -219.253 -219.253 -219.253 -0.0383759 -0.0656891 -0.0710144 -219.253 -219.253 -219.253 -219.253 -219.253 -219.253 -219.253 -219.253 -219.253 -219.253 -219.253 -219.253 -219.253 -219.253 -219.253 -219.253 -219.253 -219.253 -219.253 -219.253 -219.253 -219.253 -219.253 -0.0307007 -0.047348 -0.0470505 -0.0175171 -0.0501404 -0.0314178 -0.0197449 0.11764 0.200661 0.204391 0.194649 0.197906 0.180176 0.202393 0.191513 0.193817 0.210838 0.195663 0.209099 0.196281 0.193146 0.206024 0.201996 0.201558 0.209824 0.188698 0.0924339 0.0704956 -0.0149994 -0.0329437 -0.0216675 -0.031456 0.11763 0.179077 0.208084 0.210114 0.205849 0.223289 0.195526 0.211288 0.246124 0.214722 0.224251 0.200951 0.195999 0.216192 -219.253 0.219154 0.249283 -219.253 0.199066 0.149714 0.10981 0.0589294 -0.00901794 -0.0195313 -0.0020752 0.00208028 0.0124207 0.0157394 -0.00239563 0.0145035 -0.00979614 -0.0120392 0.018219 0.00408936 0.00494385 -0.00613403 0.00424957 0.00317383 0.0122757 -0.00449371 -0.010376
-219.253 0.104996 0.115776 0.10439 0.0600586 -0.0402298 -0.10318 -0.0610504 -0.106842 -219.253 -0.11142 -0.0635274 0.00821686 0.0990906 0.128403 0.131798 0.135468 0.134598 0.135849 0.137344 0.137344 -219.253 -219.253 0.138245 0.146484 0.137665 0.14212 0.141159 0.142451 0.142776 0.139816 0.143158 0.0954437 0.00127665 -0.0875244 -0.0939484 -0.0675278 -0.0985107 0.0245005 0.128031 0.145874 -219.253 0.147842 0.153488 0.154678 0.149055 0.154083 0.152878 0.153931 0.15303 0.152466 0.155327 0.155991 0.155045 0.156265 0.157059 -219.253 0.159203 0.0939331 0.00862122 -0.0730057 -0.067276 -0.0788574 -0.0799026 -219.253 -219.253 -219.253 -219.253 -219.253 -219.253 -219.253 -219.253 -219.253 -219.253 -219.253 -219.253 -219.253 -219.253 -219.253 -219.253 -219.253 -219.253 -219.253 -219.253 -219.253 -219.253 -219.253 0.0402069 -0.0401459 -0.0697174 -219.253 -219.253 -219.253 -219.253 -219.253 -219.253 -219.253 -219.253 -219.253 -219.253 -219.253 -219.253 -219.253 -219.253 -219.253 -219.253 -219.253 -219.253 -219.253 -219.253 -219.253 -219.253 -219.253 -219.253 -0.0373993 -0.0430908 -0.0478516 -0.0318604 -0.0154266 -0.0402069 -0.0275116 0.0452728 0.184074 0.199493 0.180344 0.204117 0.202972 0.202301 0.192207 0.209885 0.198242 0.191925 0.211243 0.182846 0.197227 0.201569 0.201035 0.210014 0.205139 0.184052 0.0847206 0.127533 0.000617981 -0.0240326 -0.0344391 -0.00243378 0.0200348 0.157104 0.210281 0.206528 0.221352 0.213799 0.221977 0.206024 0.228874 0.21669 0.223663 0.230316 0.250549 0.210358 0.255493 0.230446 0.257568 0.249573 0.225159 0.149073 0.164436 0.0611649 -0.0112305 0.003479 0.00161743 -0.0151291 0.0235596 0.0110703 -0.00804901 0.0211945 0.0202026 -0.0102692 0.032486 0.00337219 -0.00444794 -0.00698853 0.000602722 0.0186081 -0.00349426 0.0217794 -0.0115967
-219.253 0.129219 0.106781 0.108063 0.026413 -0.040062 -219.253 -0.0816193 -0.0996094 -0.102081 -219.253 -0.0901031 -0.0175476 0.0886993 0.129768 -219.253 0.133713 0.136139 0.136124 0.139282 0.140503 0.138542 0.138451 0.142502 0.139618 0.141792 0.137497 0.139542 0.139252 0.140045 0.142807 0.142761 0.119453 -0.0112915 -0.0831909 -0.0853831 -0.0943756 -0.0647583 0.0944112 0.138947 0.149109 0.146179 0.152725 0.151749 0.153656 0.149864 0.152344 0.155487 0.154388 0.150696 0.153183 0.156792 0.160172 0.156555 0.156914 0.157135 0.160217 0.158569 -219.253 -0.00548553 -0.051239 -0.0215149 -0.076004 -0.0797882 -219.253 -219.253 -219.253 -219.253 -219.253 -219.253 -219.253 -219.253 -219.253 -219.253 -219.253 -219.253 -219.253 -219.253 -219.253 -219.253 -219.253 -219.253 -219.253 -219.253 -219.253 -219.253 -219.253 0.0345459 -0.0479889 -0.0626678 -219.253 -219.253 -219.253 -219.253 -219.253 -219.253 -219.253 -219.253 -219.253 -219.253 -219.253 -219.253 -219.253 -219.253 -219.253 -219.253 -219.253 -219.253 -219.253 -219.253 -219.253 -219.253 -219.253 0.0201569 -0.0457458 -0.0415344 -0.0434875 -0.0285492 -0.0359573 -0.00116984 -0.00125122 0.114482 0.197014 0.200302 0.193871 0.188004 0.182312 0.211533 0.201513 0.20697 0.195648 0.190498 0.194443 0.202873 0.199654 0.207214 0.208069 0.214645 0.200546 0.182953 0.0903015 0.167084 0.0551376 -0.0242691 -0.0147705 -0.0292206 0.0179596 0.174784 0.20858 0.210373 0.206429 0.203964 0.216217 0.209061 0.217346 0.214218 0.219833 0.250595 0.244324 0.21875 0.255417 0.255371 0.254471 -219.253 0.229233 0.138173 0.100166 0.0818532 -0.0203247 0.00601959 -0.00357056 -0.00177511 -0.00784302 0.000493368 -0.00805664 0.0117874 -0.00967407 -0.00895691 0.028656 -0.00281525 -0.00854492 -0.00958252 0.0126457 -0.00886536 0.0054423 -0.00991821 0.0125122
-219.253 0.104019 0.116699 0.101898 0.0687561 -0.010376 -0.0913696 -0.107941 -0.108833 -0.118156 -0.104721 -0.0898488 0.00703939 0.0895691 0.137192 0.132833 0.138016 -219.253 0.137833 0.135956 -219.253 0.138901 0.138062 0.139969 -219.253 0.144257 0.143829 0.14241 0.142036 0.141113 0.141174 0.144302 0.141998 0.0117722 -0.0623474 -0.0849304 -0.0904388 -0.0818075 0.0045166 0.117767 0.149414 0.153046 0.151283 0.154297 0.150452 0.153442 0.153214 0.152161 0.152367 0.152496 0.156616 0.157043 0.154846 0.153503 0.158989 0.160736 0.159012 0.158569 0.0983047 0.00799561 -0.0829926 -0.0710297 -0.0812327 -0.0337982 -219.253 -219.253 -219.253 -219.253 -219.253 -219.253 -219.253 -219.253 -219.253 -219.253 -219.253 -219.253 -219.253 -219.253 -219.253 -219.253 -219.253 -219.253 -219.253 -219.253 -219.253 -219.253 -219.253 0.0395203 -0.0427856 -0.065567 -0.0629272 -0.06427 -219.253 -219.253 -219.253 -219.253 -219.253 -219.253 -219.253 -219.253 -219.253 -219.253 -219.253 -219.253 -219.253 -219.253 -219.253 -219.253 -219.253 -219.253 -219.253 -219.253 -219.253 0.0287781 -0.0401459 -0.0380402 -0.0358022 -0.026535 -0.00697327 -0.0428772 -0.0245132 0.112513 0.192223 0.198502 0.197533 0.199081 0.180084 0.206802 0.206696 0.193657 0.198593 0.191849 0.193741 0.199488 0.189667 0.223465 0.199081 0.201553 0.197739 0.188354 0.107915 0.0915756 0.0393448 -0.0282135 -0.0199814 -0.031311 0.0159302 0.168269 0.20549 0.20195 0.217489 0.207413 0.199112 0.21788 0.231194 0.207916 0.220088 0.218597 0.261841 0.257584 0.229146 -219.253 0.212402 0.259552 0.225174 0.103081 0.103256 0.0675278 -0.0114136 -0.0171814 0.00628662 -0.00395203 -0.00285339 0.011734 -0.0111084 0.00991821 -0.0150909 -0.00990295 0.01297 -0.00195313 -0.0190353 -0.00419617 -0.00738525 0.0241699 -0.0266571 0.015007 0.00854492
-219.253 0.112144 0.112366 0.105194 0.0368195 -219.253 -0.0797119 -0.111206 -0.109222 -0.104579 -0.0446472 -0.110565 -0.0454814 -219.253 0.136866 0.131836 0.137436 0.138374 0.138412 0.135376 0.137131 -219.253 0.139008 0.140656 0.143112 0.140533 0.143585 0.141739 0.143669 0.138382 0.138809 0.144218 0.0910797 0.00173187 -0.091217 -0.0699501 -0.0907135 -0.0681686 0.0381317 0.129753 0.151764 0.151154 0.156357 0.152916 0.151855 0.151772 0.156189 0.156952 0.15451 -219.253 0.154755 0.155342 0.158661 0.156143 0.153496 0.158569 -219.253 0.158943 0.0960541 -0.000228882 -0.0748291 -0.0756683 -0.0785217 -0.0747223 -0.0753021 -0.0590464 0.0153503 0.00260925 -219.253 -219.253 -219.253 -219.253 -219.253 -219.253 -219.253 -219.253 -219.253 -219.253 -219.253 -219.253 -219.253 -219.253 -219.253 -219.253 -219.253 -219.253 -219.253 0.0917155 -0.0335541 -0.0573578 -0.0541687 -0.057457 0.00362396 -219.253 -219.253 -219.253 -219.253 -219.253 -219.253 -219.253 -219.253 -219.253 -219.253 -219.253 -219.253 -219.253 -219.253 -219.253 -219.253 -219.253 -219.253 -219.253 -219.253 0.0528641 -0.0367126 -0.0318604 -0.0309296 -0.0316772 -0.00982666 -0.0439148 -0.0139923 0.113505 0.190636 0.194839 0.197327 0.196228 0.201553 0.205933 0.199687 0.203918 0.191742 0.190689 0.191559 0.190788 0.21003 0.185287 0.202957 0.201029 0.194702 0.190994 0.120178 0.0674858 0.0439148 -0.0217285 0.00241089 -0.0253677 0.122604 0.174886 0.210747 0.231262 0.210037 0.202866 0.225098 0.214203 0.215748 0.217102 0.227852 0.21196 0.254532 -219.253 0.229141 0.260376 0.215546 0.260071 0.23053 0.0946859 0.0992203 0.0646896 -0.0150604 0.0063858 -0.00349426 0.000940959 -0.00585938 -0.009552 -0.00926208 -0.0088501 0.00415039 0.00662231 -0.00592041 -0.00839233 -0.000564575 -0.0189514 -0.0122108 -0.0128326 0.00259399 -0.0230789 -0.0250854
-219.253 0.115852 0.156357 0.105263 0.0423838 -0.0188293 -0.109879 -0.117035 -219.253 -0.0849304 -0.107239 -0.104706 -0.0476583 0.096344 -219.253 0.13765 -219.253 0.13884 0.1362 0.139359 0.139435 0.138741 0.142914 0.137115 0.137177 0.144257 0.14238 0.141586 0.144691 0.142685 0.139267 0.144669 -219.253 0.000984192 -0.0183868 -0.084549 -0.0690231 -0.0822194 0.0410461 0.132938 -219.253 0.149368 0.153061 0.15464 0.15535 0.150284 0.153 0.153442 0.155602 0.158211 0.157928 0.158142 0.157631 0.15715 0.157875 0.157776 0.163124 0.157944 0.0813599 -0.0120544 -0.0727768 -0.0776825 -0.0731812 -0.0797043 -0.074585 -0.0709915 -0.0392761 0.0500692 -219.253 -219.253 -219.253 -219.253 -219.253 -219.253 -219.253 -219.253 -219.253 -219.253 -219.253 -219.253 -219.253 -219.253 -219.253 -219.253 -219.253 -219.253 0.153732 0.076004 -0.0283661 -0.0619812 -0.0542297 -0.0412521 0.0215302 0.100365 -219.253 -219.253 -219.253 -219.253 -219.253 -219.253 -219.253 -219.253 -219.253 -219.253 -219.253 -219.253 -219.253 -219.253 -219.253 -219.253 -219.253 -219.253 0.190796 0.0630264 -0.028244 -0.0224762 -0.0304006 -0.0328827 -0.0166473 -0.0270538 -0.0180435 0.149239 0.194534 0.186043 0.187363 0.204521 0.183151 0.206589 0.203079 0.201431 0.192276 0.195953 0.20388 0.186142 0.194626 0.206581 0.204117 0.203623 0.203812 0.209854 0.116338 0.079305 0.0109253 -0.0294495 -0.0266571 -0.0291748 0.0126953 0.172887 0.213264 0.209778 0.223002 0.214783 0.224472 0.217529 0.230179 0.216629 0.230423 0.211136 0.25882 0.25708 0.240407 -219.253 0.235786 0.235519 0.197952 0.0878372 0.0271149 0.0553665 -0.0116425 -0.0134277 0.000823975 0.0288544 -0.0130615 0.0133514 -0.00128174 0.0152893 0.0137558 -0.0108643 0.0484772 -0.00231934 -0.00508118 -0.0176239 0.00196075 -0.0204926 -0.0254669 0.00834656 0.00151825
-219.253 0.120728 -219.253 0.126045 0.0718994 -0.0205078 -0.088028 -0.081604 -0.0795288 -0.105667 -0.101349 -0.106339 -0.00630188 0.0632706 0.135513 0.137573 0.138725 0.137894 0.138565 -219.253 0.136963 0.141205 0.142014 0.140015 0.145264 0.139359 0.14138 0.146179 0.145042 0.145508 0.146576 0.143433 0.0831146 0.00779724 -0.0778427 -0.0910568 -0.0892334 -0.0602264 0.0221405 0.133385 -219.253 0.151382 0.148346 0.151047 0.151123 0.153145 0.153336 0.158829 0.154053 0.152206 0.155334 0.15271 0.155396 0.154587 0.16185 0.158951 0.160973 -219.253 0.127068 0.0189107 -0.0723572 -0.0593414 -0.0518951 -0.0736618 -0.0776978 -0.070961 -0.0259094 0.0736237 0.161184 0.233887 -219.253 -219.253 -219.253 -219.253 -219.253 0.282349 -219.253 -219.253 -219.253 -219.253 -219.253 -219.253 -219.253 -219.253 -219.253 -219.253 0.206169 0.109217 -0.0291443 -0.0584106 -0.0617065 -0.0484619 0.0464706 0.11438 0.215103 0.282852 -219.253 -219.253 -219.253 0.289688 -219.253 -219.253 -219.253 -219.253 0.294846 0.285049 -219.253 0.288055 0.292572 -219.253 -219.253 0.287598 0.152766 0.0391693 -0.0246735 -0.0281677 -0.0287577 -0.0355225 -0.0308151 -0.040741 -0.0121384 0.118296 0.188393 0.195709 0.197639 0.195755 0.187134 0.207932 0.20546 0.189224 0.211502 0.189819 0.188004 0.203222 0.182922 0.199944 0.205292 0.198893 0.194748 0.189255 0.101349 0.103271 -0.00837708 -0.0273132 -0.00808716 -0.029953 0.0213928 0.182454 0.209587 0.214218 0.228874 0.21212 0.230988 0.220673 0.233597 0.219025 0.230896 0.213348 0.232903 0.26133 -219.253 0.232549 -219.253 0.213921 0.224442 0.11097 -219.253 0.0449982 -0.00227356 -0.0138779 0.000610352 -0.00971222 0.00540161 0.00164795 -0.00985718 0.0169067 -0.00479126 -0.00822449 0.0152435 0.00138855 -0.00758362 -0.0133514 -0.0231781 0.000221252 -0.0193024 -0.029129 -0.0267639
-219.253 0.111237 0.113968 0.10702 0.0496267 -0.0292155 -0.104645 -219.253 -0.101028 -0.0869548 -0.109497 -0.108444 -0.0394897 0.0985107 0.137604 0.136215 0.141312 0.138062 0.134689 0.137497 0.142044 0.138657 0.141769 -219.253 0.143845 0.142197 0.142832 0.141922 0.145355 0.145376 0.147064 0.142929 0.0825043 0.0231628 -0.0888977 -219.253 -0.0927429 -0.0921173 0.0538101 0.131073 0.153931 0.154938 0.155228 0.152603 0.154053 0.152573 0.156876 0.154968 0.151962 0.15773 0.158264 0.155609 0.156937 0.156616 0.154017 0.160522 0.156731 0.158981 0.108383 0.00513458 -0.0720215 -0.0683136 -0.0735321 -0.0747833 -0.0675354 -0.0674667 -0.00203705 0.0704803 0.202377 0.25798 0.304733 0.263504 0.318283 0.291702 0.311623 0.288294 0.29216 0.289551 0.303185 0.349274 0.273041 0.30442 0.305862 0.312607 0.269386 0.272756 0.2034 0.0951614 -0.0306854 -0.0617218 -0.0576096 -0.0505066 0.0291748 0.0965805 0.24614 0.265083 0.304909 0.267456 0.287422 0.282786 0.306499 0.312347 0.301094 0.316429 0.290718 0.288017 0.296097 0.322609 0.267372 0.305344 0.274918 0.227386 0.189392 0.0278778 -0.0235596 -0.0305176 -0.0311737 -0.0289154 -0.0454559 -0.0305786 -0.0155182 0.156754 0.191109 0.195862 0.20594 0.204514 0.205574 0.208649 0.206696 0.193077 0.192215 0.201447 0.196686 0.200129 0.189789 0.20192 0.197098 0.209908 0.201294 0.156105 0.106453 0.08933 -0.00839233 -0.0307922 -0.0217896 -0.0278473 -0.00127411 0.145042 0.225311 0.233536 0.215561 0.234261 -219.253 0.214905 0.223083 0.223343 0.220505 0.218964 0.232155 0.173065 0.267029 0.222794 0.234207 0.213242 0.212677 0.115349 0.0289001 0.082901 0.00908661 0.0243225 0.00532532 0.00197856 0.0039978 -0.00144196 -0.00300598 -0.0098114 0.00050354 -0.00590515 0.0180359 -0.00450134 -0.0101522 0.0166702 -0.00852966 -0.014679 -0.0225067 -0.00615438 -0.0263367
0.180344 0.115501 0.113113 0.104225 0.0554352 -0.0678558 -0.0674896 -0.0827713 -0.102768 -0.109146 -219.253 -0.103439 -0.0217018 0.103394 0.160339 0.116333 0.150558 0.129494 0.158005 0.13855 0.148239 0.119919 0.140594 -219.253 0.154839 0.145386 0.14566 0.148697 0.150963 0.117577 -219.253 0.145477 0.0958099 0.00279236 -219.253 -0.0898997 -0.0895386 -0.0708059 0.0256195 0.160233 -219.253 0.128036 0.158997 0.134277 0.133713 0.163244 0.170288 0.140472 0.161041 0.131668 0.235184 0.18148 0.122711 0.153992 0.180367 0.127533 0.179131 0.153961 0.198578 0.00727844 -0.0536995 -0.0737762 -0.070755 -0.0671082 -0.075943 -0.0636902 -219.253 0.0387192 0.214294 0.218572 0.230823 0.161133 0.213776 0.235128 0.229886 0.2319 0.234451 0.228999 0.231894 0.254936 0.21196 0.240143 0.186923 0.235287 0.161446 0.211955 0.179497 0.071907 -0.0271301 -0.058136 -0.0601654 -0.0493927 0.0217896 0.155804 0.226013 0.265991 0.224644 0.200826 0.240076 0.211909 0.210121 0.220235 0.239861 0.216789 0.175369 0.237518 0.258976 0.241558 0.192383 0.30809 0.233963 0.263433 0.103984 0.0269267 -0.0237427 -0.0274658 -0.030543 -0.0350037 -0.0160522 -0.0418396 -0.014267 0.113869 0.197319 0.148885 0.189079 -219.253 0.210457 0.157166 0.145668 0.168823 0.19577 0.189194 0.158119 0.187119 0.159149 0.182671 0.165459 0.213425 0.167633 0.139282 0.148647 0.0841293 0.0355835 -0.0235901 -0.0123749 -0.0328674 0.054306 0.194158 0.184479 0.220759 0.176346 0.214264 0.171987 0.211399 0.216014 0.214411 0.192596 0.189636 0.201599 0.22079 0.154922 0.197227 0.200928 0.238861 0.160853 0.0688477 0.124852 0.0610733 -0.00483704 -0.0157623 0.00364685 0.00640869 0.00204468 0.0112686 0.00284576 -0.00382996 0.00946045 0.0175095 0.0152893 0.00376892 -0.00636292 0.00151062 -0.00700378 -0.0124359 -0.00605011 -0.00920105 -0.0115356
-219.253 0.108627 0.113571 0.107635 0.0458527 -0.0163116 -0.104431 -0.0762558 -0.0848083 -0.103714 -0.103249 -0.107796 -0.054554 0.114278 -219.253 0.136373 0.058403 0.169957 0.0987854 0.126251 0.164627 0.0536346 0.106054 0.16164 0.104451 0.0828629 0.110118 0.137256 0.147453 0.0739034 0.154355 0.0576553 0.10522 -0.00178528 -0.0771484 -0.092804 -0.0848846 -0.0739441 0.111893 0.123543 0.101185 0.100906 0.126841 0.125175 0.104716 0.0675888 0.131195 0.102615 0.128596 0.113586 0.138769 0.0636088 0.12373 0.0644379 0.103458 0.128422 0.154045 0.127019 0.0950928 0.00837708 -0.0715027 -0.0658417 -0.0523224 -0.0758514 -0.059967 -0.0711823 -0.0245361 0.0321426 0.156586 0.0938683 0.124672 0.154274 0.0751991 0.0719452 0.134821 0.0576935 0.109909 0.150162 0.0987803 0.0794983 0.135468 0.0910797 0.0912984 0.0586281 0.112488 0.103851 0.0853322 0.0786255 -0.0259705 -0.0557556 -0.0647583 -0.0534363 0.0672607 0.0819194 0.104853 0.100515 0.0824051 0.13826 0.093099 0.170288 0.120648 0.115143 0.0940979 0.124527 0.0359701 0.0874939 0.116764 0.100296 0.16925 0.127594 0.097051 0.0771332 0.0898552 -0.00215912 -0.0232391 -0.0324707 -0.0327403 -0.0342865 -0.0205841 -0.0389099 -0.0176773 0.130437 0.139343 0.145958 0.0729014 0.121105 0.170858 0.110397 0.113655 0.108711 0.108757 0.112366 0.100642 0.140559 0.161102 0.144826 0.0998535 0.0673421 0.114929 0.112114 0.116603 0.0714035 0.0412445 -0.0290375 -0.00302124 -0.000478109 0.0832672 0.132938 0.130051 0.093605 0.105461 0.172557 0.108852 0.125683 0.105911 0.114807 0.0924174 0.140045 0.0858459 0.103039 0.0846354 0.0690308 0.147175 0.157867 0.146439 0.0563253 0.105743 0.0814565 -0.0055542 -0.0169678 0.00291443 -0.012001 -0.0012207 -0.00857544 0.00585938 0.0163422 -0.00525665 -0.00535583 0.0197144 0.00102234 0.0018158 0.00268555 0.00862122 0.00315857 -0.00439453 0.00402832 -0.00357056
-219.253 0.119293 -219.253 0.103628 0.054451 -0.0421982 -0.110107 -0.0830841 -0.102219 -0.0954386 -219.253 -0.0997162 0.0738106 -0.00518799 0.0396474 0.031723 -0.00156657 -0.00781631 0.00947876 0.00264282 0.0322469 0.066452 -0.0236562 0.0275116 0.00200907 0.00240707 -0.0163956 0.0133591 -0.000528971 -0.017746 -0.0338516 -0.00997925 0.0340627 0.000743866 -0.0586344 -0.0938797 -0.0913544 -0.0834732 0.0138664 -0.00546265 0.00879288 -0.0144246 -0.0198517 -0.00911458 0.0199677 -0.00420125 -0.00458527 -0.0112305 -0.0139872 0.0250295 0.00124613 0.0454356 -0.0257263 0.0174561 0.00500107 -0.0146027 0.030481 0.00326792 0.00319417 -0.00621033 -0.0747986 -0.0642548 -0.0704803 -0.0775452 -0.0722046 -0.0567017 0.00550334 0.0316086 0.014389 -0.0518494 0.0091095 -0.00722351 0.00537872 0.0380463 -0.00127411 0.0334892 0.0175171 -0.0141563 -0.0103455 0.00228119 -0.0500437 0.0208496 -0.0285873 -0.0036087 0.030014 0.0336212 -0.0263977 0.0352287 -0.0528107 -0.0570221 -0.0587616 -0.0520477 -0.0268097 -0.0270691 0.0387904 0.0606308 -0.01334 0.00404358 0.00700378 0.00549316 0.0367483 -0.0187912 0.02285 0.0024058 0.00666046 0.0142593 -0.0414886 0.0315501 0.058316 -0.00336202 0.0177765 0.0149803 0.0185242 -0.00415039 -0.0307617 -0.0333862 -0.0291646 -0.0353241 -0.00764465 0.0103531 0.0553741 0.0147603 0.0291697 0.0208893 0.0454483 0.0352783 0.0154648 0.0402298 -0.000385284 0.0746053 0.00990295 0.0242411 0.0711441 0.0210876 0.0246735 0.0520223 0.0290604 0.0427521 0.0335693 0.00843048 0.0462443 0.0277964 0.0408096 -0.0333252 0.00816345 0.0252838 0.0572395 0.0261765 0.058918 0.0745773 0.042923 0.0299072 0.0445353 0.0417404 0.0559235 0.0461426 0.00939178 0.0451164 -0.0181274 0.0653229 0.0916328 0.083252 0.0406418 -0.00352987 0.113976 0.0672607 -0.0285721 0.0873973 -0.0129089 0.0171051 -0.000198364 0.00973511 -0.00106812 0.00742086 0.00597636 0.020401 0.000457764 -0.000808716 0.00552368 0.041214 -0.00117493 0.00358582 0.00286102 0.00439453 -4.57764e-005 0.00785065 0.0180054
-219.253 0.11496 0.115021 0.10585 0.0545273 -0.0057373 -0.075531 -0.10778 -0.106049 -0.103683 -0.105789 -219.253 -0.0832138 -0.0161794 -0.0966339 -0.0672073 -0.0708008 -219.253 -0.102336 -0.0960083 -0.085139 -0.0304947 -0.0654602 -0.0792389 -0.0467224 -0.0856628 -0.0650635 -0.0896454 -0.0859222 -0.0838623 -0.042305 -0.0873108 -0.0931091 -0.0406494 -0.0847473 -0.0851974 -0.0856323 -0.0884857 -0.0892487 -0.0679092 -0.0839386 -0.0798187 -0.0781708 -0.0664368 -219.253 -0.081131 -0.0771332 -0.0826416 -0.0719757 -0.0763092 -0.0755005 -0.0444794 -0.0656891 -0.079422 -0.077507 -0.0747986 -0.0839386 -0.072464 -0.0747375 -0.0693512 -0.0712814 -0.0715485 -0.0706329 -0.0589447 -0.0682983 -0.0704193 -0.0676727 -0.0678406 -0.06633 -0.0671387 -0.0683746 -0.0299733 -0.0675964 -0.0665131 -0.06147 -0.0712128 -0.0657196 -0.0652161 -0.0611267 -0.0634155 -0.0592804 -0.0596008 -0.0620575 -0.0567169 -0.0616837 -219.253 -0.0549469 -0.0594177 -0.0591888 -0.0563202 -0.0540924 -0.0576935 -0.055603 -0.0545959 -0.0572891 -0.0594635 -0.0556793 -0.0536499 -0.0498962 -0.0170237 -0.0514679 -219.253 -0.0415497 -0.0502853 -0.0494537 -0.0096283 0.00350952 -0.0488281 -0.0461578 -0.0481415 -0.0341187 -0.02447 -0.0222168 -0.0226364 -0.0369873 -0.0298157 -0.0301666 -0.0355377 -0.00961304 -0.0242157 -0.0311025 -0.021347 -0.0260468 -0.0221252 -0.00963593 -0.0233459 -0.00634766 -0.0160675 -0.011528 -0.0262451 -0.0241394 -0.0253525 -0.00487518 -0.0302963 -0.0273285 -0.0160141 -0.0169678 -0.00848389 -0.0196228 -0.00798035 -0.00514221 -0.0258942 -0.0125961 -0.0225983 0.000167847 -0.0160522 -0.00982666 -0.0144653 -0.0187912 -0.0151672 -0.0135727 0.00163269 -0.0222778 -0.00675964 -0.0068512 -0.0124512 -0.00328827 -0.00886536 -0.0195923 0.00535583 -0.0169525 0.0393982 -0.0126038 -0.00450134 0.0154037 0.0415802 -0.0172729 0.012619 0.0105362 -0.0103226 0.00469971 0.0135193 0.000946045 -0.0092926 -0.000518799 0.00959778 -0.00227356 -0.00344849 0.0153351 0.00762939 0.0108032 0.0222931 0.00563049 0.00462341 0.00332642 0.00579834 0.0212402
-219.253 0.116394 0.133171 0.111977 0.0567474 -0.0368398 -0.103912 -0.0945587 -0.0974579 -0.104805 -0.101204 -0.0904465 -0.100708 -0.0994263 -0.0684814 -219.253 -219.253 -0.0977529 -219.253 -219.253 -0.102463 -0.0956726 -0.0823822 -0.094162 -0.094696 -219.253 -0.0743866 -0.0942993 -0.0824534 -219.253 -0.0954742 -0.092926 -0.0878296 -0.0837708 -0.0877686 -0.0829163 -0.0864563 -0.0879364 -0.0869904 -219.253 -0.08078 -0.0836334 -0.0823059 -0.0838623 -0.0765839 -0.0836487 -0.0836182 -0.061058 -0.076828 -219.253 -0.0709839 -0.0717926 -0.0797729 -0.06987 -0.0727234 -219.253 -0.0761515 -219.253 -0.0492706 -0.0693665 -0.0696411 -0.0700989 -0.0698853 -0.067749 -0.0675507 -0.0680695 -0.071167 -0.0647736 -0.0427933 -0.0660502 -0.0612183 -0.0586243 -0.0652161 -0.0656738 -0.0594635 -0.0665588 -0.0610504 -0.0654068 -0.0622559 -0.0567474 -0.0602112 -0.0616913 -0.0688019 -0.059845 -0.0614166 -0.0586243 -0.0375137 -0.0579529 -0.0525589 -0.0521088 -0.0373027 -0.0524597 -0.0566559 -0.0527344 -0.0555344 -0.0546722 -0.0518951 -0.055275 -0.049057 -0.0499725 -0.0456238 -0.0333252 -0.0480347 -0.0426941 -0.0490875 -0.0429382 -0.0456085 -0.0451813 -0.0477371 -0.0383453 -0.0240936 -0.0359192 -0.0245819 -0.0312653 -0.0309855 -0.0318451 -0.0331624 -0.0324478 -0.0282745 -0.0255585 -0.018425 -0.0333862 -0.0221939 -0.0238495 -0.0382385 -0.0154419 -0.0334625 -0.0162048 -0.0134277 -0.0253372 -0.0236816 -0.0235291 -0.0347595 -0.0152334 -0.0239868 -0.0123367 -0.0245209 -0.0130539 -0.0173645 -0.0170059 -0.0184326 -0.0272522 -0.00842285 -0.0207367 -0.0083313 -0.0113525 -0.0149155 -0.00455475 -0.0148468 -0.0195618 -0.000602722 -0.0145798 -0.0155029 -219.253 -0.0123596 -0.00761414 -0.0190125 -0.00671387 0.000389099 -0.00979614 0.00820923 0.0166473 -0.0120544 -0.00546265 -0.00482178 0.0349579 -0.00161743 0.0331421 0.0124435 0.0367126 -0.000488281 -0.000915527 0.0045929 -0.0091629 0.00366211 -0.00436401 0.022728 -0.00439453 0.0187531 -219.253 0.0118256 0.00260925 0.00817871 0.00622559 0.00749969 0.00387573 -0.00518799
-219.253 0.127075 0.118996 0.124084 0.0762939 -0.00990295 -0.0798391 -219.253 -219.253 -0.0993195 -0.0866852 -0.0861435 -0.0999527 -0.0912018 -0.100189 -0.102997 -0.0896378 -0.0935059 -0.0967789 -0.0964737 -0.0927849 -0.0900421 -0.102051 -0.0899506 -0.0801086 -0.0914154 -0.0815353 -0.0938263 -0.0908661 -0.0842234 -0.0863571 -0.0834249 -0.0840607 -219.253 -0.0850067 -0.0820007 -0.0835571 -0.0899251 -0.0901184 -0.0848389 -0.0784912 -0.0868835 -0.0786591 -0.0819855 -0.082077 -0.0727005 -0.0793304 -0.0795288 -0.0777283 -0.0774231 -0.0740509 -0.0771332 -0.0728683 -0.07724 -0.0777384 -0.0743256 -0.0714951 -0.0647736 -0.0693054 -0.0684204 -0.0645905 -0.0648499 -0.0688019 -0.0643921 -0.0686951 -0.070816 -0.0739594 -0.0551147 -0.0664063 -0.0684586 -0.0673218 -0.0493724 -0.0643311 -0.0654297 -0.0567169 -0.0361938 -0.0602417 -0.0642548 -0.0595703 -0.0560913 -0.0525055 -0.0428696 -0.0635986 -0.0591583 -0.0469666 -0.0594177 -0.05159 -0.055542 -0.0397034 -0.0548248 -0.0559692 -0.0488205 -0.0568695 -0.0532227 -0.0553131 -0.0500641 -0.0508881 -0.0479279 -0.0456238 -0.0442276 -0.0471191 -219.253 -0.0500793 -0.0475616 -0.0471039 -0.0470123 -0.0440369 -0.0473022 -0.0439148 -0.0327835 -0.0196075 -0.0292918 -0.0254822 -0.0208664 -0.0391922 -0.0277252 -0.0279465 -0.0326614 -0.0271454 -0.0260162 -0.0208588 -0.0314636 -0.0286255 -0.0279388 -0.0257339 -0.0267181 -0.036087 -0.0149231 -0.0230815 -0.0184174 -0.00862122 -0.0260849 -0.0254059 -0.0160929 -0.0256805 0.00195313 -0.0179596 -0.0150375 -0.0188446 -0.0194397 -0.00262451 -0.012207 -0.00801086 -0.024826 -0.00692749 -0.0215302 0.00263977 -0.0184021 -0.0135117 -0.0127563 -0.00469462 -0.0170746 -0.00109863 -0.0138397 -0.00637309 -0.00979614 0.00075531 -0.0123444 -0.00108337 -0.0177536 -0.0157928 0.00965881 0.000961304 0.00161743 -0.0155258 0.0346985 0.0128326 0.0109253 -219.253 -0.00524902 0.00434875 0.0188675 0.00201416 0.0182877 -0.00131226 0.0171204 -0.000335693 -0.00265503 0.0158997 0.00744629 0.00830841 -0.00474548 0.0210724 0.008461 0.00879669 0.00311279 0.0230637
-219.253 0.108093 0.140778 -219.253 0.0612488 -219.253 -0.0731964 -0.101807 -0.0963593 -0.0874557 -0.0965118 -0.0988312 -0.105728 -0.0926514 -219.253 -0.0690994 -0.0950775 -0.105377 -0.0901337 -0.111374 -0.14212 -0.105011 -0.0861206 -0.0913696 -0.0973206 -0.0873108 -0.383278 -0.34938 -0.170024 -0.288351 -0.33941 -0.263251 -0.340976 -0.28457 -0.298122 -0.0824203 -219.253 -0.0810089 -0.370221 -0.328753 -0.321385 -0.367264 -0.351908 -0.317563 -0.295105 -0.334558 -0.345152 -0.304314 -0.258675 -0.401428 -0.366392 -0.311338 -0.330032 -0.305396 -0.302498 -0.352824 -0.327999 -0.370098 -0.392362 -0.332812 -0.295982 -0.0674286 -0.0663452 -0.0604401 -0.065918 -0.0605164 -0.0663147 -0.0578918 -0.0642853 -0.066864 -0.0635376 -0.0639038 -0.0622101 -0.063797 -0.0609283 -0.0648346 -0.0527496 -0.0581207 -0.0611115 -0.0551453 -0.0638351 -0.060791 -0.0547028 -0.0559692 -0.0379639 -0.053421 -0.0623779 -0.0555267 -0.0527573 -0.0503693 -0.0302633 -0.0535126 -0.0535889 -0.0515594 -0.0543442 -0.0420532 -0.0536194 -0.0477982 -0.048996 -0.0471039 -0.0439606 -0.0421143 -0.00365448 -0.0461884 -0.0440521 -0.0435181 -0.040329 -0.0461578 -0.0304794 -0.0154953 -0.0237732 -0.0330048 -0.0238495 -0.0304871 -0.0376129 -0.0353699 -0.0273488 -0.0294952 -0.00367737 -0.026947 -0.30706 -0.312103 -0.29953 -0.288569 -0.34387 -0.283713 -0.287441 -0.326069 -0.30306 -0.259096 -0.323786 -0.312201 -0.347532 -0.264788 -0.267855 -0.351278 -0.321208 -0.27043 -0.301425 -0.286209 -0.320166 -0.266312 -0.241004 -0.0252686 0.00242615 -0.0183716 -0.275251 -0.309797 -0.257471 -0.248845 -0.323944 -0.295448 -0.339521 -0.312023 -0.285522 -0.330625 -0.32221 -0.270134 -0.268161 -0.265625 -0.307765 -0.26478 -0.280426 -0.30789 -0.249095 -0.30207 -0.311729 -0.243082 -0.303419 0.00429281 0.00769043 0.011734 0.0210876 0.00622559 0.00726318 -0.00286865 0.0063324 -9.15527e-005 0.0197754 0.00767517 0.00810242 -0.00216675 0.0153351 -0.0210724 0.0146103 -0.011261 -0.019455
0.16629 0.125534 0.118347 0.114665 0.0453033 -0.000572205 -0.0801341 -0.0813141 -0.0994873 -0.0954285 -219.253 -0.108891 -0.378311 -0.468587 -0.372498 -0.424971 -0.44045 -0.438137 -0.380209 -0.441273 -0.422386 -0.466151 -0.428077 -0.44649 -0.404112 -0.417282 -0.484212 -0.391942 -0.48468 -0.633949 -0.651072 -0.638336 -0.64978 -0.640953 -0.393496 -0.089798 -0.0822372 -0.0883636 -0.457375 -0.647308 -0.65033 -0.446431 -0.647171 -0.646042 -0.643901 -0.646469 -219.253 -0.644062 -0.64743 -0.64473 -0.641792 -0.642738 -0.64327 -0.64225 -0.641968 -0.640884 -0.642059 -0.63942 -0.638031 -0.634476 -0.344363 -0.0691376 -0.0651703 -0.0670624 -0.0643311 -0.0586624 -0.0684357 -0.0604401 -0.0659332 -0.0649567 -0.0639648 -0.0628052 -0.0652618 -0.0690308 -0.0624466 -0.0700989 -0.0519714 -0.0553513 -0.0590591 -0.055481 -0.0536728 -0.0592041 -0.0498657 -0.0605774 -0.0467072 -0.0557404 -0.0509644 -0.0554962 -0.0437088 -0.0482941 -0.0569763 -0.0508499 -0.0573578 -0.0488892 -0.0518951 -0.0474701 -0.0504913 -0.049614 -0.0413666 -0.04599 -0.0403595 -0.0249634 -0.0434875 -0.0429077 -0.0397644 -0.0443802 -0.0387268 -0.0111389 -0.0237198 -0.0371552 -0.0242462 -0.0205231 -0.0365601 -0.0272217 -0.0301259 -0.0339966 -0.0260162 -0.0296021 -0.235992 -0.180323 -0.368919 -0.365147 -0.289749 -0.413792 -0.35688 -0.543877 -0.315701 -0.354541 -0.331665 -0.36706 -0.395258 -0.348002 -0.318654 -0.48444 -0.305424 -0.197654 -0.298914 -0.290596 -0.27712 -0.23856 -0.295204 -0.291031 -0.215769 -0.0176239 -0.301617 -0.320305 -0.265887 -0.308665 -0.322147 -0.399986 -0.306268 -0.256434 -0.309511 -0.265509 -0.309811 -0.270487 -0.280002 -0.248108 -0.191912 -0.268729 -0.260579 -0.300654 -0.367134 -0.331668 -0.23107 -0.312256 -0.371986 -0.281776 -0.304422 -0.00799561 0.00309753 0.00794474 -0.000137329 -0.00105286 -0.000686646 0.0164185 0.000480652 -0.00012207 0.0153046 0.0020752 -0.00588481 -0.0108948 -0.0205688 -0.00283813 -0.000350952 -0.00585938 -0.0184021
-219.253 0.11879 0.122169 0.11657 0.0550588 -0.0397542 -0.0996704 -0.102234 -0.0982208 -0.0980225 -0.0521774 -219.253 -0.660172 -0.660629 -0.659195 -219.253 -0.661596 -0.658112 -0.658936 -0.657898 -219.253 -0.659653 -0.654945 -0.656967 -0.655518 -0.658615 -0.653511 -0.653107 -0.655167 -219.253 -0.657341 -0.652756 -0.654709 -0.65329 -0.393368 -0.0805511 -0.0874329 -0.0875473 -0.646591 -0.648109 -0.648209 -0.646459 -0.645981 -0.645386 -0.646713 -0.645966 -0.644508 -0.644234 -0.644608 -0.64476 -0.644287 -0.643921 -0.644867 -0.640869 -0.645645 -0.638687 -0.639984 -0.639023 -0.63765 -0.638046 -0.377912 -0.0670319 -0.0470683 -0.0658264 -0.0660706 -0.0612869 -0.0734711 -0.0649414 -0.0613861 -219.253 -0.0475464 -0.0685577 -0.0448151 -219.253 -0.0658722 -219.253 -0.0526581 -0.0618286 -0.0598373 -219.253 -0.0679474 -0.0590515 -0.0486043 -0.0558777 -219.253 -0.0596313 -219.253 -219.253 -0.0240784 -0.0488129 -0.0509186 -0.0399933 -219.253 -0.0515442 -0.0335999 -219.253 -0.0493011 -219.253 -0.0460968 -0.0426178 -0.0522156 -219.253 -0.0309601 -0.00939941 -0.0447388 -219.253 -219.253 -0.0226644 -219.253 -0.0220795 -0.0180206 -0.0154877 -0.0219574 -0.0182266 -0.0361557 -0.0330963 -0.0272776 -0.0204086 -0.324281 -0.30151 -0.362415 -0.279165 -0.340744 -0.261902 -0.359247 -0.294113 -0.273337 -0.433533 -0.597366 -0.400586 -0.419479 -0.371136 -0.592499 -0.586782 -0.595123 -0.586222 -0.589005 -0.589912 -0.592743 -0.59877 -0.586967 -0.294189 -0.239655 -0.0318451 -0.291248 -0.199193 -0.578181 -0.572235 -0.580009 -0.590454 -0.571365 -0.585587 -0.56765 -0.587387 -0.567245 -0.594292 -0.592209 -0.558151 -0.589188 -0.567795 -0.567825 -0.578148 -0.592728 -0.575109 -0.30304 -0.585014 -0.290863 -0.59201 -0.230062 0.0071106 0.00151062 -0.0027771 0.00897217 0.0126266 0.00775146 -0.000411987 0.0103404 0.00483704 0.0230713 0.0068512 -0.00527954 -0.0146332 0.00605011 -0.0121918 0.00653839 -0.00930786 -0.0133362
-219.253 0.118576 -219.253 0.110374 0.0606537 -219.253 -219.253 -219.253 -0.0371246 -0.103638 -0.0940094 -0.0972443 -0.659775 -0.660149 -0.658661 -0.663681 -0.660599 -0.65921 -0.656227 -0.659775 -0.657333 -0.658157 -0.658073 -0.655746 -0.655571 -0.655472 -0.653809 -0.654915 -0.652328 -0.654091 -0.651535 -219.253 -0.651543 -0.649261 -0.353213 -0.0815125 -0.0848541 -0.0822144 -0.644592 -0.647751 -0.64357 -0.649063 -0.645065 -0.645737 -0.644287 -0.643539 -0.642746 -0.640724 -0.641846 -0.64566 -0.63829 -0.64183 -0.639094 -0.641022 -0.636948 -219.253 -0.639969 -0.637161 -0.641945 -0.633362 -0.409651 -0.0616608 -0.0637283 -0.0606232 -0.059021 -0.0566559 0.00178528 -219.253 -219.253 -0.0169525 -219.253 -219.253 -219.253 -219.253 -219.253 -219.253 -219.253 -219.253 -219.253 -219.253 -219.253 -219.253 -219.253 -219.253 -219.253 -219.253 -219.253 -219.253 0.0156174 -0.0486298 -0.0546265 -0.0433426 0.0203857 -219.253 -219.253 -219.253 -219.253 -219.253 -219.253 -219.253 -219.253 -219.253 -219.253 -219.253 -219.253 0.0633698 -219.253 -0.0146586 -0.0164948 -0.0276031 0.0276413 0.00602722 -0.0147247 0.0252838 -0.0275726 -0.030777 -0.0240682 -0.0346375 -0.343373 -0.301857 -0.586739 -0.604752 -0.612778 -0.589386 -0.592107 -0.596527 -0.587341 -0.600624 -0.600143 -0.587229 -0.597717 -0.606781 -0.58757 -0.587474 -0.594559 -0.579102 -0.593628 -0.576233 -0.59343 -0.588745 -0.597275 -0.600067 -0.259837 -0.0183258 -0.324875 -0.196416 -0.585487 -0.598618 -0.571159 -0.587982 -0.578206 -0.584091 -0.576564 -0.585693 -0.593185 -0.574356 -0.592911 -0.576385 -0.590958 -0.566116 -0.586563 -0.576797 -0.583618 -0.581444 -0.591187 -0.564285 -0.5867 -0.588547 -0.257298 -219.253 0.00469971 0.0184479 0.00688171 0.0213928 -0.00601196 0.000183105 0.0292969 0.00119019 0.0240173 0.00630188 -0.00259399 -0.00465393 0.0017395 -0.0042572 -0.0185852 -0.000724793 0.00919342
-219.253 0.120148 0.119949 0.115929 0.0714111 0.00135803 -0.0840378 -0.0843887 -0.0979309 -0.0924021 -0.0910873 -0.101776 -0.655502 -0.658844 -0.65802 -0.656029 -0.656189 -219.253 -0.654358 -0.654068 -0.651001 -0.656944 -0.656677 -0.65155 -0.657372 -0.655029 -219.253 -0.651179 -0.654099 -219.253 -0.653229 -0.651268 -0.647682 -0.647781 -0.398122 -0.0816956 -0.0850983 -0.0854645 -0.643906 -0.641121 -0.64267 -0.64241 -0.644684 -0.643753 -0.642113 -219.253 -0.640778 -0.640762 -0.642059 -0.639862 -0.63958 -0.639709 -0.640839 -0.639404 -0.637756 -0.639206 -0.637512 -0.638031 -0.638031 -0.635254 -0.344289 -0.0644836 -0.0581589 -0.0607758 -0.0627747 -0.047287 -0.00608317 0.116661 -219.253 -219.253 -219.253 -219.253 -219.253 -219.253 0.169739 0.165695 -219.253 -219.253 -219.253 -219.253 -219.253 -219.253 0.184875 -219.253 -219.253 -219.253 0.180008 0.123817 0.00382996 -0.0480957 -0.0489349 -0.0367279 0.0897217 0.179962 0.166016 -219.253 -219.253 -219.253 -219.253 -219.253 0.199692 0.201691 -219.253 -219.253 0.202301 0.201706 -219.253 0.20079 0.111008 0.222641 0.18943 0.0892715 0.113209 -0.00254822 -0.0317078 -0.0343781 -0.0298233 -0.0326385 -0.265291 -0.57663 -0.590042 -0.600052 -0.613373 -0.595039 -0.607544 -0.591187 -0.595581 -0.596634 -0.59967 -0.598183 -0.60463 -0.584595 -219.253 -0.587591 -0.588715 -0.581169 -0.593704 -0.601151 -0.583794 -0.597885 -0.586678 -0.596436 -0.268766 -0.0159454 -0.361011 -0.28521 -0.585861 -0.589417 -0.597122 -0.586533 -0.569069 -0.585632 -0.577382 -0.585709 -0.570511 -0.585861 -0.591537 -0.576828 -0.56736 -0.568741 -0.566757 -0.589157 -0.587433 -0.582771 -0.583466 -0.583786 -0.589294 -0.589279 -0.334404 -219.253 -0.00198364 -2.54313e-005 0.0063324 0.0231247 0.0183411 0.000976563 0.00576782 0.0037384 0.0263824 0.001297 0.00756836 -0.0038147 -0.0113068 -0.00349426 0.00701141 -0.0106506 -0.013382
-219.253 0.11969 0.146332 0.112595 0.0463333 -0.00904846 -0.0893402 -0.0825195 -0.0960846 -0.090566 -0.0923767 -219.253 -0.655121 -219.253 -0.657776 -0.655914 -0.658356 -0.656097 -0.655815 -0.654373 -0.650024 -219.253 -0.650299 -219.253 -0.650963 -0.651443 -0.654694 -0.650238 -219.253 -0.648697 -0.648209 -0.647491 -219.253 -0.651443 -0.275274 -219.253 -0.0804291 -0.0957489 -219.253 -219.253 -0.647186 -0.639389 -219.253 -219.253 -0.642258 -0.642761 -0.643738 -0.64241 -0.642395 -0.651031 -0.639069 -219.253 -0.639847 -0.652817 -0.631073 -0.639511 -0.648788 -0.638321 -0.634933 -0.641388 -0.23952 -0.0639801 -0.0586777 -0.06073 -0.040329 -0.0473557 -0.00513458 0.0809021 0.17971 0.181206 0.180809 0.182701 0.179008 0.189606 0.184158 0.186012 0.18483 0.181015 0.188759 0.183421 0.185654 0.183495 0.186775 0.187271 0.18502 0.19075 0.184555 0.137535 0.0218964 -0.0471191 -0.037501 -0.0325012 0.0862732 0.188416 0.199102 0.196083 0.199036 0.198372 0.198387 0.202362 0.201088 0.202728 0.202835 0.206629 0.205612 0.203438 0.205238 0.203217 0.218254 0.234039 0.212723 0.120015 0.121302 0.0255432 -0.0318069 -0.0389709 -0.0259399 -0.0341797 -0.296438 -0.37351 -0.606476 -0.633476 -0.620224 -0.588074 -0.618332 -0.588181 -0.604095 -0.609146 -0.583244 -0.608986 -0.60701 -0.589005 -0.624664 -0.597453 -0.604126 -0.586044 -0.618057 -0.583939 -0.616692 -0.589317 -219.253 -0.595863 -0.344098 -0.0133972 -0.364963 -0.311818 -0.581894 -0.613686 -0.615967 -0.608175 -0.570389 -0.578003 -0.59465 -0.590492 -0.571587 -0.606071 -0.600052 -0.593486 -0.604485 -0.596146 -0.585037 -0.585533 -0.593012 -0.587296 -0.622375 -0.562828 -0.604106 -0.601761 -0.417759 -0.327118 -0.00167847 -0.00165558 -0.000457764 0.00270081 0.00308228 -0.000549316 0.0181961 -219.253 0.00984192 0.00715637 0.00813293 -0.00144958 0.00382996 -0.000488281 -0.0119476 0.00928497 -0.00718689
-219.253 0.123856 0.123352 0.118057 0.079689 -0.0050354 -0.0727844 -0.0988464 -0.0986023 -219.253 -0.0951385 -0.597722 -0.68314 -0.686058 -0.675404 -0.684326 -0.689615 -0.679428 -0.680074 -0.689143 -0.701538 -0.668587 -0.682217 -0.65387 -0.686539 -0.69215 -0.683571 -0.688711 -0.682465 -0.680359 -0.678013 -0.689153 -0.682571 -0.692116 -0.452649 -0.337784 -0.0831146 -0.620163 -0.661922 -0.681295 -0.701828 -0.680196 -0.685888 -0.6772 -0.675685 -0.674278 -0.693436 -0.68188 -0.677559 -0.690613 -0.684509 -0.674428 -0.677574 -0.692184 -0.68634 -0.692848 -0.685923 -0.693954 -0.674118 -0.689662 -0.502574 -0.262976 -0.0588074 -0.0519257 -0.0591888 -0.0567322 0.0133514 0.104584 0.176933 0.179207 0.183014 0.184433 0.183517 0.187881 -219.253 0.186172 0.18602 0.188736 0.185547 0.191391 0.188042 0.184738 0.191605 0.187553 0.187943 0.187515 0.190224 0.108134 -0.0204926 -0.0440674 -0.0446014 -0.0369492 0.0912476 0.189926 0.196899 0.198532 0.199356 0.199272 0.204132 0.200043 0.20092 0.206955 0.199318 0.201752 0.199692 0.203735 0.203308 0.20459 0.220596 0.228912 0.213928 0.13892 0.121852 0.031662 -0.028923 -0.0344849 -0.0193075 -0.036972 -0.329507 -0.615677 -0.610405 -0.660599 -0.628578 -0.620163 -0.61348 -0.630508 -0.613831 -0.611725 -0.645055 -0.602661 -0.645004 -0.611671 -0.589518 -0.653137 -0.609344 -0.606102 -0.624074 -0.653 -0.620829 -0.603058 -0.610413 -0.640717 -0.273609 -0.279205 -0.319035 -0.321259 -0.596054 -0.63884 -0.598656 -0.610512 -0.60555 -0.612892 -0.591705 -0.647598 -0.592667 -0.594457 -0.608836 -0.594063 -0.590431 -0.595474 -0.617432 -0.590324 -0.607513 -0.60276 -0.617622 -0.58931 -0.600777 -0.642159 -0.647934 -0.31094 -219.253 -0.00192261 0.0113525 0.0310135 0.000671387 0.000823975 0.0102234 0.00532532 0.0254669 0.0112762 0.00904083 0.00509644 0.00697327 0.0141907 0.00958252 0.0147705 0.010498
