# .PCD v0.7 - Point Cloud Data file format
VERSION 0.7
FIELDS x y z
SIZE 4 4 4
TYPE F F F
COUNT 1 1 1
WIDTH 1524
HEIGHT 1
VIEWPOINT 0 0 0 1 0 0 0
POINTS 1524
DATA ascii
15.01886 4.2407351 -0.086853027
15.074707 4.2439785 -0.079330444
15.163513 4.2506742 -0.09185791
15.315491 4.2310305 -0.08454895
15.334175 4.2361641 -0.017501831
15.437592 4.2242403 -0.092712402
15.57254 4.2193394 -0.048568726
15.624886 4.2043934 0.0052337646
15.748611 4.2070017 -0.096298218
15.82299 4.1982632 -0.033477783
15.862671 4.222496 -0.0083618164
15.868629 4.2344751 -0.086257935
15.89753 4.2124071 -0.020446777
15.961151 4.2459803 -0.096359253
16.028267 4.203001 -0.04838562
13.172775 4.2984867 -5.8179016
16.079079 4.2174625 -0.086517334
16.189041 4.1950846 0.013839722
13.009071 4.2324553 -6.3510895
13.258125 4.2516184 -5.8120422
16.212143 4.2544069 -0.082489014
16.250259 4.204855 -0.047714233
16.309601 4.171627 0.0070953369
12.975929 4.287406 -6.5399017
13.021347 4.2747765 -6.4367523
13.043495 4.2435455 -6.4039917
13.080208 4.2429581 -6.3024597
13.240562 4.228734 -5.938385
16.327507 4.2314301 -0.079727173
13.016602 4.3022327 -6.768692
13.058022 4.2572851 -6.5883484
13.157928 4.21418 -6.4267426
13.147476 4.2158337 -6.3366699
13.468018 4.2690468 -5.7602692
16.475586 4.2333622 -0.086410522
16.481834 4.2589006 0.014678955
13.066246 4.2772379 -6.700592
13.494888 4.2900448 -5.8999634
13.804642 4.2973614 -5.453064
16.602898 4.2148399 -0.083862305
16.578957 4.2637157 -0.032669067
13.154343 4.2976122 -6.8689117
13.18808 4.2544193 -6.7982483
13.212135 4.2393665 -6.7505493
13.312424 4.2570944 -6.5501099
13.414932 4.2710276 -6.399353
13.472168 4.2681694 -6.1387329
13.928017 4.2405062 -5.3701019
16.649948 4.2177362 -0.10392761
16.694664 4.1898708 -0.061462402
16.736778 4.2488651 0.01675415
13.244606 4.2240868 -6.831955
13.357948 4.2751694 -6.6098785
13.386742 4.2583885 -6.5720062
13.630341 4.2201872 -6.1748962
16.773964 4.210536 -0.096191406
13.284752 4.2613134 -6.9215088
13.552811 4.3043423 -6.5998383
13.718353 4.2171783 -6.2547607
13.82756 4.2999392 -6.0698547
16.843803 4.2259197 -0.095748901
16.903069 4.2136707 -0.093505859
13.320824 4.2308578 -7.1967163
13.61338 4.2402611 -6.6381226
13.660576 4.2224035 -6.4840393
13.861473 4.2933531 -6.197052
13.338524 4.2581835 -7.2881622
13.452599 4.3062286 -7.1736908
13.649666 4.2362585 -6.6712036
13.708389 4.2899351 -6.6507721
13.96048 4.2158413 -6.1714478
14.155098 4.2394066 -5.7894745
13.47876 4.2630005 -7.3760834
13.474976 4.2997751 -7.3208313
13.675537 4.2426462 -6.9002075
13.692879 4.269413 -6.8628082
13.744553 4.2715025 -6.7002869
13.95549 4.29214 -6.4662323
14.059998 4.2225046 -6.1861725
14.192383 4.2621469 -5.9956055
14.228378 4.2726383 -5.9116516
14.270851 4.245409 -5.7828064
17.281105 4.2202606 -0.023544312
13.360809 4.2245903 -7.6340179
13.509483 4.2674541 -7.5094452
13.465851 4.2363348 -7.4417267
14.420799 4.2217026 -5.7592316
14.470535 4.2426233 -5.6716919
17.361259 4.2006693 -0.024993896
17.419266 4.21628 -0.021957397
13.542793 4.2117519 -7.6095886
13.560272 4.2975378 -7.5764465
14.219162 4.2617798 -6.3977356
14.477005 4.2879143 -5.7447357
14.532776 4.2393799 -5.6734924
14.579819 4.2409325 -5.6137238
17.50695 4.1882572 -0.098419189
17.494133 4.2110662 -0.024520874
13.566948 4.2420073 -7.6908417
13.654999 4.2861738 -7.5804901
13.702591 4.2841644 -7.5070496
13.815674 4.229475 -7.3379822
14.063354 4.2486 -6.78862
14.138573 4.2609272 -6.7418976
14.169182 4.2938442 -6.5970917
14.611443 4.2647219 -5.8256531
14.689735 4.2124891 -5.6138153
17.60421 4.2108231 -0.037124634
17.64846 4.2215643 -0.012084961
13.739792 4.2345247 -7.6539917
13.779015 4.2353268 -7.5663605
13.879829 4.2876596 -7.4399872
13.891342 4.2384834 -7.410202
13.953125 4.2729483 -7.2284546
14.04686 4.2298069 -7.1676941
14.057968 4.2556572 -7.0277863
14.1381 4.2714558 -6.9403687
14.162857 4.2138872 -6.8323822
14.28286 4.2178364 -6.7009888
14.641685 4.2286043 -5.8266907
14.727867 4.27491 -5.7461548
17.671577 4.2284098 -0.05557251
17.730789 4.2126274 -0.026626587
13.81604 4.2217798 -7.6395111
13.870369 4.2800188 -7.591156
13.922363 4.2509632 -7.5035248
13.969063 4.2388592 -7.4536438
14.030396 4.2722616 -7.3148346
14.078987 4.2615108 -7.1289978
14.176888 4.2675896 -7.0653229
14.194572 4.2356348 -6.9882965
14.2416 4.2485962 -6.8383484
14.33757 4.2289619 -6.7043152
14.745148 4.2905378 -5.9074402
14.802879 4.2599993 -5.8368225
14.819954 4.2436285 -5.7670288
14.879578 4.2094965 -5.6769409
17.838203 4.2397461 -0.057403564
17.848122 4.2085304 -0.017105103
13.939011 4.2764444 -7.7341614
13.972076 4.2748089 -7.6526794
14.018288 4.2566319 -7.5803375
14.107605 4.264369 -7.3538055
14.249626 4.2307825 -7.0431061
14.323471 4.2454777 -6.886795
14.450401 4.2984457 -6.7666016
14.44062 4.2291365 -6.6863251
14.944199 4.2220192 -5.7422485
17.933334 4.1927185 -0.024200439
14.005157 4.2859068 -7.844574
14.010643 4.2867002 -7.7667389
14.036453 4.2757683 -7.7035675
14.113106 4.2612829 -7.5699615
14.130455 4.2795362 -7.5292816
14.247643 4.2407198 -7.3340759
14.275314 4.2883978 -7.2855988
14.361717 4.2174244 -7.1416626
14.408073 4.2489834 -7.0827484
14.553589 4.2584629 -6.8092194
14.608658 4.265027 -6.7017059
14.611664 4.2668858 -6.6722412
14.880959 4.2560749 -6.1580353
14.887657 4.2756271 -6.1377258
14.949478 4.2052994 -6.0429688
15.042969 4.2250347 -5.8378296
15.092903 4.2119169 -5.7416077
15.076965 4.2291889 -5.6739044
17.980453 4.1793804 -0.10562134
18.064156 4.2186747 -0.020446777
14.105766 4.2693043 -7.7993774
14.128738 4.2930069 -7.751709
14.196182 4.2585239 -7.6261749
14.288933 4.2569122 -7.417038
14.440712 4.2631483 -7.2281342
14.482773 4.2500362 -7.138504
14.470856 4.2664928 -7.0279999
14.586555 4.2638464 -6.9857941
14.599892 4.2805176 -6.8070679
14.645592 4.2854452 -6.7174988
14.880463 4.2970963 -6.3933563
14.872765 4.2930412 -6.3735504
14.949883 4.2605772 -6.1071625
14.981613 4.2293167 -6.0765533
15.062698 4.2496166 -5.9443665
15.132095 4.2281504 -5.9013214
15.14119 4.2247496 -5.7974243
18.112419 4.1712837 -0.090576172
18.202881 4.1756277 -0.02331543
14.323265 4.2968073 -7.655899
14.339348 4.2153454 -7.5643921
14.50515 4.2588816 -7.2879028
14.509949 4.2712202 -7.1744843
14.624886 4.2576494 -7.091629
14.634583 4.2262897 -7.0179291
14.759796 4.2601433 -6.7536621
14.930145 4.2530632 -6.4320068
15.14254 4.2477093 -6.0860748
15.160439 4.2413588 -6.0219421
15.144073 4.2571306 -5.9536438
15.248741 4.2097836 -5.8557739
15.34655 4.2414169 -5.74646
15.490639 4.2046556 -5.4738922
18.282639 4.2192631 -0.01335144
14.400047 4.2172804 -7.7213745
14.425323 4.2504063 -7.6583557
14.562904 4.2953119 -7.3794556
14.588715 4.287981 -7.3271637
14.675919 4.2241163 -7.1320648
14.758446 4.2249041 -7.0443115
14.774368 4.2569857 -6.9621429
14.949806 4.2318306 -6.6274719
15.061569 4.2909136 -6.5196228
15.175903 4.2398825 -6.1571503
15.340385 4.2149849 -5.8722229
15.353439 4.2787571 -5.8316498
15.466537 4.2587051 -5.693985
15.586754 4.2222948 -5.4800262
18.321381 4.2400446 -0.114151
18.384644 4.2078342 -0.009185791
18.433197 4.2285175 0.018859863
14.509949 4.2571869 -7.6986542
14.543526 4.2464209 -7.6178589
14.620804 4.2070675 -7.5310211
14.621811 4.2597103 -7.4494019
14.664886 4.2800398 -7.3347015
14.736572 4.2362499 -7.2189789
14.810387 4.2226105 -7.1402893
14.837494 4.2204351 -7.1251373
14.842743 4.2404242 -7.0115356
15.123512 4.2146435 -6.5152588
15.309731 4.2901001 -6.1009674
15.348259 4.2176409 -6.0312958
15.430527 4.2256012 -5.9444733
15.51487 4.2573967 -5.7597351
15.593964 4.2458143 -5.6066284
15.688934 4.2329531 -5.4961395
18.496475 4.2116537 -0.071578979
18.533333 4.1915312 -0.019882202
14.575851 4.2219963 -7.7426758
14.583321 4.2943201 -7.6699524
14.744629 4.2986755 -7.5556488
14.767334 4.2936134 -7.5046387
15.170204 4.2949219 -6.6226654
15.471077 4.2886934 -6.1570892
15.463921 4.1983118 -6.0625458
15.528984 4.2630711 -5.9908142
15.530739 4.2924442 -5.9242249
15.583473 4.2379894 -5.7914886
18.580879 4.1589031 -0.092346191
18.606567 4.2117023 -0.023513794
14.773834 4.2715006 -7.5428619
15.182594 4.252346 -6.8866577
15.172966 4.2215757 -6.776886
15.280106 4.2009583 -6.7337341
15.356461 4.2828979 -6.559845
15.561974 4.2444019 -6.1168823
15.600487 4.2520399 -6.0496979
14.919128 4.2406807 -7.5655823
14.963089 4.2161322 -7.4029388
15.084351 4.2217102 -7.3026428
15.153755 4.2895432 -7.2132721
15.127296 4.2061586 -7.0995331
15.594337 4.2253981 -6.2038574
15.658104 4.239687 -6.176178
15.69606 4.2173977 -6.0675049
14.97876 4.2189312 -7.6017914
15.074821 4.2103453 -7.5561676
15.086311 4.2390356 -7.4953918
15.132904 4.2852306 -7.3524628
15.223045 4.2703485 -7.1864166
15.309242 4.2259274 -6.9846344
15.46756 4.2215815 -6.744339
15.583534 4.281374 -6.4190063
15.661942 4.2514448 -6.3930511
15.686417 4.2594509 -6.3019714
15.096916 4.2382793 -7.6769867
15.084099 4.2054377 -7.5858765
15.124352 4.2399893 -7.5197906
15.223923 4.2650528 -7.3193054
15.315918 4.2694769 -7.2332611
15.461243 4.2241716 -6.9517975
15.501389 4.2304497 -6.8220978
15.535156 4.2233591 -6.8330383
15.617233 4.2802763 -6.6589203
15.768105 4.2854557 -6.3789215
15.825089 4.2274828 -6.2071075
15.392479 4.2864208 -7.2530365
15.528252 4.2780123 -7.0925598
15.563225 4.2494059 -6.9979553
15.741348 4.2536106 -6.6782684
15.745026 4.2543383 -6.561142
15.802727 4.2256451 -6.4549561
15.858864 4.2066307 -6.3885193
15.565361 4.2551384 -7.1179199
15.632263 4.2549438 -7.0581665
15.811966 4.228157 -6.8129425
15.810143 4.2423038 -6.7004547
15.809433 4.2363853 -6.6321564
15.561493 4.2989254 -7.4499817
15.54628 4.2130814 -7.356842
15.670204 4.2276592 -7.2590332
15.68425 4.2317486 -7.2002258
15.897507 4.2121077 -6.7657928
15.611916 4.2103119 -7.58638
15.62043 4.2478256 -7.4816895
15.647751 4.2234135 -7.4125061
15.748749 4.2161322 -7.4411926
17.208145 4.2604065 -6.7841949
17.461098 4.2691422 -6.6122284
17.481071 4.2445602 -6.5860443
17.49585 4.2230034 -6.4970093
17.539742 4.2731829 -6.579422
17.459572 4.2334681 -7.2920837
17.484177 4.2454224 -7.2758636
17.820366 4.1901474 -6.6013794
17.501106 4.2506266 -7.2809448
17.945114 4.2701788 -6.6090698
17.444191 4.2418346 -7.7670593
17.489431 4.2467155 -7.7645264
17.525291 4.2366924 -7.7334747
18.187393 4.1884975 -6.5619049
17.936508 4.2209215 -7.2348938
17.979019 4.2331657 -7.2154694
17.886467 4.2234726 -7.7543488
17.875885 4.1976604 -7.6955109
18.077805 4.221529 -7.3913116
18.361397 4.1987753 -6.7881775
17.919586 4.2376413 -7.7649994
17.959984 4.247489 -7.7342377
18.238083 4.1972828 -7.2529297
18.22319 4.2351971 -7.2189484
18.166367 4.2441416 -7.7802887
18.226402 4.2380428 -7.7558289
18.371925 4.2371883 -7.3553772
18.585419 4.2091007 -7.7649994
18.580406 4.1970224 -7.7421722
18.606041 4.2415371 -7.7693787
0.048126221 4.3617659 0.099975586
0.2585907 4.3806467 0.047073364
0.31520081 4.3921423 -0.0044250488
0.54998016 4.3690443 -0.20062256
0.6808548 4.4231825 -0.12312317
0.74113464 4.3810692 -0.15301514
0.77400208 4.3904409 -0.084686279
0.85440063 4.35742 -0.10876465
0.90172577 4.388566 -0.070663452
0.97258759 4.4151878 -0.16508484
1.0095367 4.37988 -0.082183838
1.0103683 4.3890676 -0.17259216
1.0803986 4.3885632 -0.12136841
1.1645508 4.3359995 -0.069580078
1.1881332 4.3796453 -0.17445374
1.2247009 4.391407 -0.087265015
1.317894 4.3776178 -0.12388611
1.3303299 4.3818626 -0.076370239
1.404007 4.3771782 -0.14912415
1.455368 4.3645411 -0.095687866
1.4836044 4.3841581 -0.17172241
1.5235977 4.3852911 -0.12432861
1.58358 4.389328 -0.073272705
1.6119232 4.3737783 -0.15759277
1.6607285 4.3801165 -0.096191406
1.7504425 4.3702564 -0.15440369
1.7972107 4.3622704 -0.074188232
1.8465881 4.3820057 -0.16661072
1.8813324 4.3674679 -0.11338806
1.9688416 4.3802967 -0.14234924
2.0205612 4.3696051 -0.082336426
2.0389404 4.3429241 -0.17337036
2.1167908 4.3701315 -0.091171265
2.1825867 4.3859444 -0.080032349
2.1501389 4.388011 -0.18096924
2.2457123 4.3644505 -0.14051819
2.2763672 4.392869 -0.073318481
2.3474808 4.354208 -0.10227966
2.413681 4.3729296 -0.06098938
2.4209671 4.3983965 -0.12960815
2.471611 4.359066 -0.080551147
2.5378113 4.3233232 -0.03704834
2.5520325 4.3688707 -0.1762085
2.5705566 4.3832045 -0.10565186
2.6061478 4.3440895 -0.046676636
2.647644 4.3642006 -0.15689087
2.6907349 4.3701715 -0.077972412
2.724411 4.4000568 -0.14874268
2.7899551 4.39431 -0.12953186
2.8284378 4.3723021 -0.071228027
2.8764572 4.3664207 -0.14343262
2.9245758 4.391552 -0.07963562
3.0035095 4.3656626 -0.12519836
3.0471344 4.3631725 -0.071960449
3.0899963 4.3645124 -0.13243103
3.1398239 4.3740215 -0.094085693
3.2240982 4.3719597 -0.096557617
3.2814026 4.3574219 -0.058731079
3.3043747 4.3636723 -0.13783264
3.3732452 4.3744268 -0.079208374
3.4452362 4.3619833 -0.11010742
3.4990463 4.3713245 -0.065505981
3.506546 4.3504534 -0.16009521
3.586647 4.3720055 -0.092559814
3.6876755 4.3671417 -0.10289001
3.7465668 4.3485956 -0.070037842
3.7854385 4.3813295 -0.15983582
3.8074417 4.3758631 -0.095916748
3.9016647 4.3619328 -0.1190033
3.9409866 4.3777676 -0.059753418
4.002182 4.3391609 -0.14981079
4.0518265 4.3759937 -0.082977295
4.0868683 4.3421297 -0.048233032
4.0845337 4.378911 -0.14924622
4.1601257 4.3674364 -0.071670532
4.2575531 4.3599968 -0.10682678
4.3530197 4.3686352 -0.13536072
4.392334 4.3676529 -0.068344116
4.4957047 4.3664646 -0.090332031
4.5685425 4.3769779 -0.11497498
4.6212692 4.3538084 -0.086532593
4.6496353 4.3663158 -0.15318298
4.7114182 4.3703852 -0.10081482
4.7987061 4.3633127 -0.13711548
4.8532562 4.3635807 -0.080230713
4.8703766 4.3654594 -0.16079712
4.9537735 4.3633986 -0.12568665
4.9827042 4.3660622 -0.058181763
5.0180817 4.3351269 -0.14472961
5.0441132 4.3721743 -0.0831604
5.1281281 4.3274107 -0.15867615
5.1534958 4.3811398 -0.11930847
5.2207489 4.3536987 -0.13807678
5.2820129 4.3696728 -0.092880249
5.31073 4.3756981 -0.1635437
5.3857803 4.3440361 -0.11947632
5.4706039 4.3671284 -0.13522339
5.5066605 4.357583 -0.088668823
5.5481262 4.3157072 -0.15597534
5.6005478 4.3609209 -0.12590027
5.6302567 4.3279419 -0.056091309
5.7074432 4.3515291 -0.14759827
5.7266846 4.3559284 -0.064926147
5.7637405 4.3243036 -0.032791138
5.840332 4.3549862 -0.12295532
5.8704987 4.3467331 -0.05796814
5.9071426 4.3888159 -0.16880798
5.9666367 4.3647995 -0.075927734
6.0419464 4.3618774 -0.1158905
6.1022568 4.3570547 -0.059082031
2.6006775 4.3753366 -7.028183
6.1544189 4.3562517 -0.15325928
6.1989212 4.3635492 -0.07850647
6.2212524 4.3624792 -0.036941528
2.6202393 4.3822918 -7.0361023
2.7645798 4.3779821 -6.8678589
6.2695007 4.3851242 -0.11561584
6.3290329 4.3562422 -0.053695679
2.7062149 4.3719912 -7.2774353
2.8488922 4.3681211 -6.9785461
6.4044647 4.3606739 -0.07913208
6.4125519 4.3486519 -0.024185181
2.7092667 4.3549814 -7.2780151
2.7617493 4.3711433 -7.2489319
2.865593 4.3612242 -7.017807
6.499649 4.3543653 -0.11592102
6.5343246 4.356637 -0.057144165
2.9509964 4.4039097 -7.17836
6.6243515 4.3624334 -0.09362793
6.6815109 4.3555813 -0.027053833
2.927803 4.3646927 -7.4147491
2.9769058 4.3542929 -7.3682709
6.7189789 4.3568859 -0.13237
6.7837448 4.3674965 -0.04486084
3.0640106 4.3762064 -7.4294434
6.7898865 4.324585 -0.12902832
6.8627853 4.3646698 -0.1008606
6.8797684 4.3402166 -0.05065918
6.908783 4.312561 -0.1184845
6.9853058 4.3590336 -0.080749512
7.07827 4.3596401 -0.10198975
7.1369019 4.3591433 -0.041610718
7.193512 4.3634558 -0.12815857
7.2149811 4.3392048 -0.067459106
7.258728 4.3962069 -0.015914917
7.3214569 4.3486156 -0.11108398
7.3351898 4.3190432 -0.049606323
7.4130859 4.350317 -0.12736511
7.440361 4.3432512 -0.063278198
7.4785995 4.3993692 -0.027008057
7.5131607 4.3609505 -0.10107422
7.5515442 4.342453 -0.037658691
7.5998764 4.3522844 -0.12078857
7.6462784 4.3529739 -0.063323975
7.7545242 4.3562164 -0.11668396
7.7826462 4.3465042 -0.052841187
7.8559799 4.3472643 -0.12301636
7.8704071 4.3593025 -0.068450928
7.9409714 4.3995361 -0.033966064
7.9725494 4.3589573 -0.11460876
8.0070877 4.3496265 -0.058959961
8.0601883 4.3514404 -0.12307739
8.1201248 4.3397331 -0.073394775
8.1742249 4.3506069 -0.036575317
8.182312 4.376132 -0.1191864
8.2314453 4.342205 -0.035720825
8.2930145 4.3795233 -0.12780762
8.3372269 4.3486433 -0.064865112
8.3761215 4.3247776 -0.033401489
8.4315338 4.352828 -0.096221924
8.4691925 4.3673649 -0.057312012
8.5700684 4.3519135 -0.10647583
8.5848999 4.3339167 -0.029052734
8.6413879 4.3609018 -0.077575684
8.685257 4.3467026 -0.072601318
8.7549438 4.3565617 -0.10498047
8.8275223 4.3294706 -0.036010742
8.8733444 4.356185 -0.12812805
8.9050674 4.3363123 -0.071716309
8.9391251 4.3654604 -0.13723755
9.2281036 4.3393383 -0.12461853
9.2620392 4.361661 -0.13793945
9.7252197 4.3487244 -0.12168884
9.8275909 4.3013859 -0.13941956
10.365982 4.3672094 -0.137146
11.956284 4.3026896 -0.11231995
12.194588 4.354805 -0.1293335
12.264725 4.3709135 0.011260986
12.334061 4.3780699 -0.089248657
12.358131 4.3420658 -0.11108398
12.39016 4.3482132 -0.059509277
12.489342 4.3267059 -0.10414124
12.542015 4.3321457 -0.04095459
12.629028 4.3324919 -0.076690674
12.6577 4.3329725 -0.005279541
12.742226 4.3351393 -0.10047913
12.768822 4.3166447 -0.026641846
12.851761 4.3460579 -0.060180664
12.900467 4.3284397 -0.0092468262
12.974052 4.3505907 -0.11248779
12.979858 4.3168335 -0.036071777
13.06176 4.3268309 -0.065292358
13.115463 4.3203201 -0.0085906982
13.166214 4.3412428 -0.095626831
13.202522 4.3315945 -0.018188477
13.276367 4.2969027 -0.0045318604
13.289421 4.3206234 -0.083877563
13.35997 4.3176317 -0.019515991
13.365097 4.3274097 -0.088516235
13.421127 4.327795 -0.037109375
13.531349 4.3158808 -0.063476563
13.533875 4.3639593 -0.025848389
13.60408 4.3434277 -0.12246704
13.720238 4.2891769 -0.018798828
13.7649 4.3082438 -0.075881958
13.750679 4.3470516 -0.017974854
13.819809 4.3530941 -0.091873169
13.924957 4.3199959 -0.051971436
13.983131 4.3276367 -0.072906494
14.022102 4.3263054 -0.021377563
14.054634 4.3006468 -0.092544556
14.093163 4.3326149 -0.043411255
14.138535 4.2903624 0.010803223
14.193726 4.3067684 -0.088302612
14.236008 4.3473644 -0.02255249
14.262894 4.2958488 -0.10209656
14.323845 4.3362007 -0.047119141
14.372169 4.3065109 -0.0099945068
14.459801 4.3240061 -0.090301514
14.472702 4.3220387 0.005645752
14.53038 4.3467274 0.024169922
14.548233 4.3265963 -0.064926147
14.565338 4.3186493 0.0090942383
14.664185 4.3276539 -0.083892822
14.688774 4.3193121 -0.027984619
14.767761 4.3179693 -0.055099487
14.805626 4.3310385 0.0039367676
14.834206 4.3590221 -0.096176147
14.887421 4.3251657 -0.040054321
14.940437 4.3129988 -0.074142456
15.069344 4.3596783 -0.004699707
15.062141 4.2741766 -0.11317444
15.158943 4.3067694 -0.10942078
15.18586 4.3355856 -0.091705322
15.284454 4.3337955 -0.0010681152
15.304802 4.3231335 -0.098083496
15.345871 4.2962723 -0.029815674
15.425407 4.3342381 -0.080383301
15.490631 4.3470383 -0.01789856
15.523933 4.3209467 -0.1048584
15.564522 4.3422127 -0.034744263
15.901665 4.3221874 -0.07194519
15.952621 4.3366261 -0.0061187744
15.958687 4.3114471 -0.086181641
16.117638 4.3156414 -0.086471558
13.246155 4.3473434 -5.8525391
16.236687 4.3200188 -0.091888428
12.919182 4.4031601 -6.6607208
12.970917 4.3630238 -6.561615
12.986069 4.3161039 -6.4795837
13.242203 4.4023647 -6.0848083
13.279976 4.3468666 -5.9281464
12.95269 4.3291798 -6.6967468
13.055557 4.3814964 -6.6346893
13.125862 4.3128052 -6.5402374
13.3582 4.342804 -6.063446
13.363266 4.3573313 -5.9588013
13.394379 4.3078804 -5.8840027
13.464973 4.3744621 -5.8527679
13.526062 4.3993177 -5.6453094
16.396645 4.3447008 -0.090332031
13.084938 4.3504791 -6.73526
13.181305 4.359848 -6.6016388
13.355713 4.4049025 -6.3145142
13.374756 4.3884239 -6.2218781
13.435539 4.342823 -6.1399689
13.46978 4.3586025 -6.0054474
13.514053 4.3957472 -5.9640503
16.547485 4.3243799 -0.08013916
13.174065 4.3305006 -6.8615112
13.161957 4.3915205 -6.739151
13.170738 4.3974228 -6.7245178
13.266403 4.3836098 -6.6256561
13.389709 4.338809 -6.3247986
13.815163 4.3031301 -5.6401978
16.753906 4.3222828 0.020126343
13.175346 4.3522997 -6.9314575
13.239098 4.3346443 -6.8396301
13.360336 4.3447838 -6.6616974
16.788729 4.3208647 -0.089187622
16.817039 4.2923107 0.012039185
13.49427 4.310894 -6.6730194
16.898293 4.3068457 -0.052230835
13.380249 4.3437614 -7.1136322
13.511215 4.3414059 -6.8069
13.532318 4.4051476 -6.7667542
13.562424 4.3605738 -6.6620483
17.017563 4.3066931 -0.089569092
13.314629 4.3121328 -7.4851837
13.436211 4.387228 -7.1578522
13.630211 4.3449268 -6.8070221
13.660751 4.3517933 -6.6892395
13.876472 4.3644142 -6.2247467
14.098618 4.3985109 -5.9919586
17.152115 4.3359299 -0.038391113
17.201439 4.3306026 -0.019271851
13.363129 4.3395939 -7.405426
13.435875 4.4062986 -7.4046478
13.487038 4.3886023 -7.2915802
13.508064 4.3640623 -7.1865082
14.325409 4.3842888 -5.6897125
17.267761 4.3046427 -0.024780273
13.495842 4.3504276 -7.490509
13.482086 4.3832712 -7.4413605
13.89164 4.3498249 -6.7958221
13.931503 4.325305 -6.7129974
14.067871 4.3538103 -6.3406372
14.265274 4.3628521 -5.9946594
17.367569 4.3154926 -0.022506714
17.423889 4.3024616 -0.021530151
13.594444 4.3902321 -7.5372772
14.441628 4.3287992 -5.8392029
14.492554 4.3733454 -5.8005524
17.502632 4.3095179 -0.023696899
17.539757 4.2985134 0.043136597
13.675972 4.4014254 -7.6576691
13.687294 4.3435364 -7.463089
13.888138 4.3620176 -7.0681
14.033638 4.3120289 -6.9752045
14.05925 4.3354893 -6.8744812
14.06842 4.3311806 -6.8115845
14.213486 4.3763819 -6.531311
14.516945 4.3338442 -5.9966125
14.638504 4.3735542 -5.811676
14.670052 4.3890629 -5.7276154
17.588722 4.3176651 -0.036956787
17.645691 4.3075581 -0.0079650879
13.773911 4.3335629 -7.6269379
13.786911 4.3384418 -7.5852966
13.84726 4.3919792 -7.4832001
13.920158 4.3392582 -7.3845673
13.940048 4.3571043 -7.290451
13.986122 4.3988695 -7.1247253
14.069916 4.3464565 -6.9922791
14.08699 4.3243561 -6.9465942
14.314949 4.3210773 -6.5557556
14.740692 4.3932228 -5.8299713
17.68927 4.3194752 -0.086807251
17.730171 4.3098068 -0.016937256
17.753883 4.3346405 0.045394897
13.830742 4.3643045 -7.7737732
13.834679 4.3691597 -7.6955719
13.869339 4.3692131 -7.6348114
13.928337 4.3317804 -7.5128174
13.986687 4.3677683 -7.4099274
14.01165 4.370923 -7.3342896
14.087044 4.341876 -7.2207184
14.0662 4.3617229 -7.1656647
14.189232 4.3603573 -6.9648132
14.368263 4.3622093 -6.6352386
14.663849 4.3899059 -6.1475067
14.729362 4.3972769 -6.0632324
14.700806 4.3228693 -5.9427338
14.746567 4.3632622 -5.8445129
17.80378 4.3026638 -0.064117432
17.851379 4.3181152 -0.016281128
13.861565 4.3912144 -7.7818146
13.919815 4.3567076 -7.7188263
13.931946 4.3784513 -7.6708527
14.029411 4.3560619 -7.5562744
14.056831 4.3575001 -7.4908752
14.096428 4.3894262 -7.3562012
14.181046 4.3372602 -7.1660614
14.209595 4.3484077 -7.1109467
14.467369 4.3040142 -6.6829071
14.849442 4.364172 -5.9197235
14.96759 4.3648214 -5.7174225
17.955582 4.3020744 -0.011169434
14.009064 4.3265829 -7.7735748
14.071304 4.3705025 -7.680542
14.088448 4.3746977 -7.6134796
14.117737 4.3159552 -7.498703
14.366287 4.3946648 -7.2004547
14.405602 4.3111124 -7.1098175
14.762238 4.3764133 -6.3564453
15.008202 4.3328896 -5.8482971
18.085358 4.3200521 -0.011184692
14.112602 4.335907 -7.7136536
14.179024 4.3697386 -7.6593781
14.245255 4.393611 -7.5377655
14.326752 4.394618 -7.3840179
14.457947 4.396246 -7.1891327
14.422523 4.3105621 -7.1141357
14.56385 4.4028301 -6.9606323
14.620316 4.3314838 -6.8566895
14.634865 4.3311043 -6.8018646
14.717094 4.3792725 -6.6666565
14.895317 4.3188753 -6.3563995
15.020454 4.3445063 -6.155899
15.067459 4.3588905 -6.0574036
15.17498 4.2993851 -5.8104553
15.283371 4.3255377 -5.4844208
18.134857 4.3316708 -0.084899902
18.168709 4.3191977 -0.0071411133
14.282097 4.3368855 -7.673996
14.335419 4.3562193 -7.6200409
14.373062 4.3503885 -7.5473175
14.471893 4.3399277 -7.3598175
14.506065 4.3516788 -7.2566681
14.647636 4.3830872 -7.0981903
14.63755 4.3549232 -6.9932404
14.73011 4.325901 -6.9013214
14.708275 4.4006119 -6.8138428
14.954559 4.3887005 -6.4476471
14.952011 4.3859005 -6.4143677
15.004066 4.3799963 -6.254303
15.070427 4.3544846 -6.1977692
15.126038 4.324625 -6.0509796
15.258568 4.3706446 -5.8709564
15.35939 4.2981796 -5.7037354
18.290848 4.312727 -0.01234436
14.417374 4.3810139 -7.6464081
14.437401 4.3555079 -7.5769501
14.48497 4.3342772 -7.4524231
14.539703 4.3178921 -7.414566
14.600517 4.3523998 -7.3220825
14.638382 4.3664417 -7.2291718
14.675293 4.3232594 -7.1638184
14.768166 4.3163776 -7.0465393
14.778183 4.3295898 -6.989624
14.928413 4.3609715 -6.6396942
14.969299 4.3356819 -6.6110382
15.307419 4.3951511 -5.8790588
15.504051 4.3084555 -5.6709442
18.399734 4.3073635 -0.029663086
18.43058 4.3056393 0.031936646
14.513824 4.3128223 -7.7209625
14.508354 4.3280058 -7.6429749
14.618805 4.3804331 -7.3821716
14.664574 4.3591957 -7.3701019
14.750565 4.3904181 -7.2704163
14.800316 4.37675 -7.1622467
14.796448 4.3213491 -7.0665588
14.995255 4.3200426 -6.7189178
15.05014 4.3504009 -6.621582
15.247955 4.3651352 -6.2820129
15.292679 4.3039646 -6.1692352
15.281898 4.3112564 -6.1110992
15.438133 4.3759041 -5.9440918
15.516129 4.3300734 -5.8249359
18.475746 4.2897396 -0.072097778
18.524155 4.3222876 -0.012176514
14.569435 4.3203449 -7.7203674
14.598091 4.315279 -7.6741638
14.75563 4.387867 -7.4942474
14.798424 4.3612909 -7.4011383
14.805283 4.334878 -7.3123627
14.842842 4.3501282 -7.2124939
14.94223 4.3935156 -7.0095062
15.166374 4.3289232 -6.6193085
15.52935 4.2971449 -5.8534851
18.559759 4.2618942 -0.070495605
14.803154 4.3770256 -7.5176086
14.801567 4.3770609 -7.4664001
14.865097 4.3893824 -7.3686523
15.04969 4.3895941 -7.1277466
15.321953 4.383976 -6.6607819
15.35511 4.3228922 -6.5571899
15.513695 4.3519831 -6.2635803
15.500923 4.3665714 -6.1563873
15.546829 4.3301725 -6.1072845
15.626137 4.3886652 -6.0636902
14.868843 4.3483639 -7.5988312
14.960091 4.3668823 -7.4955444
15.028549 4.394454 -7.421875
15.124771 4.3738289 -7.2517242
15.142731 4.3112497 -7.1351318
15.354378 4.3689833 -6.6540985
15.380165 4.3775578 -6.618454
15.675896 4.3629494 -6.1756592
15.679329 4.351635 -6.1064148
15.027466 4.3641472 -7.6199188
15.055412 4.3739824 -7.5690155
15.0541 4.3959999 -7.4561157
15.13604 4.3924294 -7.4007874
15.178818 4.3734446 -7.2519531
15.220528 4.34235 -7.2303314
15.243187 4.3381462 -7.0887299
15.718002 4.3408499 -6.1921692
15.070686 4.3736544 -7.6229095
15.095306 4.3819523 -7.5995789
15.306252 4.313962 -7.2205811
15.45089 4.3615236 -7.0228119
15.62941 4.3769417 -6.6851959
15.645241 4.3747501 -6.6207733
15.738083 4.3266315 -6.3911743
15.73555 4.3519678 -6.350769
15.408112 4.3617315 -7.2622375
15.424927 4.3618336 -7.1858215
15.491837 4.3364582 -7.0458374
15.537346 4.3280859 -7.0024719
15.548492 4.3508263 -6.9526062
15.664566 4.3823137 -6.7112122
15.690575 4.3554516 -6.6516418
15.737556 4.3662233 -6.5849915
15.485619 4.357379 -7.329834
15.828461 4.3052082 -6.6089478
15.904259 4.3661604 -6.4371338
15.469193 4.3656158 -7.5231934
15.534355 4.3502464 -7.440567
15.601379 4.345047 -7.3764343
15.610863 4.3631067 -7.3061218
15.649902 4.3232307 -7.1406097
15.620728 4.3372154 -7.5720978
15.623795 4.3330631 -7.5396881
15.696709 4.3320284 -7.5994263
15.683662 4.3424702 -7.5505829
17.186104 4.3743448 -6.5180511
17.17334 4.3851337 -6.91922
17.153442 4.3657188 -7.151535
17.456184 4.3421402 -6.6067505
17.488655 4.335516 -6.6082916
17.51284 4.3398485 -6.5922699
17.664345 4.3593817 -6.5097046
17.162399 4.3680668 -7.5866699
17.202728 4.3683176 -7.6822357
17.461159 4.3462868 -7.2921906
17.477715 4.3259687 -7.2800903
17.515106 4.3470497 -7.2645416
17.943642 4.3345222 -6.6099701
17.432159 4.3270121 -7.7677002
17.481018 4.3363008 -7.7698364
17.521004 4.3361092 -7.7458649
17.626488 4.3421087 -7.5665131
17.892769 4.3644361 -6.9664459
18.157433 4.3746185 -6.5615845
18.197601 4.3663969 -6.6055908
18.306824 4.3715458 -6.452774
17.845215 4.3904915 -7.6274567
17.904495 4.3262224 -7.7595062
17.892754 4.3695173 -7.6778259
17.935135 4.3474817 -7.7666931
17.952187 4.3306742 -7.7404785
18.31588 4.3656034 -7.1672668
18.348656 4.3734798 -6.9383698
18.161606 4.3301229 -7.7793732
18.21347 4.3254452 -7.7575989
18.303207 4.3646288 -7.623291
18.600922 4.2919216 -7.0447998
18.336021 4.3616667 -7.6630249
18.606033 4.3779087 -7.2770996
18.602486 4.333025 -7.7629852
0.21029665 4.4734821 0.014801025
0.66346741 4.4715014 -0.18031311
0.68462372 4.516943 -0.070892334
0.71237946 4.4617901 -0.15405273
0.77439117 4.4671726 -0.092193604
0.84963989 4.4838562 -0.11801147
0.88775635 4.4717484 -0.061325073
1.0112076 4.4300117 -0.16033936
0.99906921 4.4965782 -0.086975098
1.0276337 4.4630079 -0.17436218
1.0738754 4.4965992 -0.12271118
1.1199722 4.5272169 -0.077774048
1.1481934 4.4824991 -0.16897583
1.1793671 4.4855986 -0.10539246
1.2488327 4.4491014 -0.17099001
1.3159485 4.4794111 -0.14328003
1.3744888 4.4696112 -0.059082031
1.3958511 4.4574928 -0.16712952
1.4571457 4.4733152 -0.090927124
1.4679947 4.4811945 -0.16519165
1.5087357 4.499485 -0.1547699
1.5617523 4.5164604 -0.083084106
1.6388321 4.4664993 -0.16397095
1.6849594 4.4748411 -0.11274719
1.7613678 4.4773998 -0.13955688
1.8057022 4.5026989 -0.076660156
1.828476 4.5186815 -0.15136719
1.8935318 4.4688816 -0.10443115
1.9266739 4.4598436 -0.049606323
1.97258 4.4736977 -0.1509552
2.0138395 4.4453526 -0.074951172
2.0714035 4.4715729 -0.16781616
2.1208344 4.4749784 -0.088104248
2.1842575 4.4248953 -0.070495605
2.2326431 4.4830618 -0.15370178
2.2290573 4.4573364 -0.098220825
2.313446 4.4795742 -0.17378236
2.344429 4.4516382 -0.11384583
2.4289246 4.4652939 -0.15907288
2.4812546 4.4514256 -0.084503174
2.5175629 4.4552908 -0.16401672
2.5745926 4.4714298 -0.11828613
2.6133957 4.4851236 -0.060287476
2.6424866 4.4641914 -0.14199829
2.7060165 4.4799356 -0.10360718
2.7246857 4.451148 -0.16998293
2.789711 4.464119 -0.1245575
2.8321381 4.4921923 -0.048736572
2.8574448 4.4875965 -0.16578674
2.9298935 4.4757833 -0.091796875
2.9514999 4.4221954 -0.16122437
3.0198364 4.4621897 -0.13076782
3.1013031 4.4770699 -0.13937378
3.1556778 4.4717817 -0.08215332
3.2251587 4.4768 -0.13183594
3.2733841 4.479043 -0.062454224
3.3153534 4.4427538 -0.16676331
3.385376 4.4684658 -0.088287354
3.4633255 4.4631834 -0.10670471
3.4740524 4.4775772 -0.042449951
3.5525055 4.4566803 -0.13946533
3.5881348 4.4629288 -0.098266602
3.630394 4.4179401 -0.041015625
3.6718597 4.4728184 -0.11730957
3.7026215 4.4518461 -0.086456299
3.762291 4.4879208 -0.15916443
3.8098602 4.4670429 -0.099685669
3.9007797 4.453927 -0.135849
3.9100113 4.4699574 -0.074005127
4.0032959 4.4714527 -0.1599884
4.0204849 4.458272 -0.11129761
4.1001358 4.4231377 -0.061950684
4.1239395 4.4520178 -0.14334106
4.1600418 4.4763336 -0.070571899
4.2693405 4.4666824 -0.11430359
4.3602753 4.4630899 -0.13899231
4.4048157 4.4463549 -0.087921143
4.4436417 4.4341974 -0.16470337
4.4851456 4.4596748 -0.1210022
4.5174713 4.4963598 -0.039825439
4.5768127 4.4715557 -0.14016724
4.5888748 4.459794 -0.090942383
4.6589584 4.4562569 -0.14790344
4.7043915 4.4632368 -0.11956787
4.77565 4.4153805 -0.054000854
4.8027573 4.4638348 -0.14550781
4.8352356 4.4682236 -0.072952271
4.8932877 4.4533768 -0.16262817
4.9410629 4.455616 -0.1178894
4.9632034 4.441618 -0.05255127
5.0334473 4.4679298 -0.13197327
5.0692368 4.4539108 -0.1033783
5.107811 4.4534969 -0.15910339
5.1595688 4.464694 -0.12088013
5.1984558 4.4537401 -0.068817139
5.2561493 4.4491425 -0.13864136
5.3018494 4.4565182 -0.080856323
5.3280106 4.4466257 -0.16307068
5.39505 4.468708 -0.11573792
5.4322052 4.467802 -0.069580078
5.4827728 4.4684191 -0.14338684
5.5203171 4.445714 -0.084838867
5.5903702 4.4654226 -0.12930298
5.6284103 4.442667 -0.047607422
5.7171936 4.4314785 -0.14485168
5.7297363 4.4584026 -0.081008911
5.7895584 4.4812212 -0.036804199
5.8110886 4.465848 -0.086227417
5.8963013 4.4598856 -0.05897522
5.9104538 4.4789238 -0.1577301
5.9674149 4.4460897 -0.08001709
6.0466919 4.458025 -0.11576843
6.1027756 4.4565496 -0.058120728
2.5775757 4.4669294 -6.9891968
6.1313019 4.4787149 -0.12234497
6.1873016 4.4603024 -0.0962677
6.1936722 4.4615765 -0.033187866
6.2795868 4.4645271 -0.10195923
6.3211517 4.4499779 -0.059936523
6.4066544 4.4474173 -0.079025269
6.4786682 4.4654121 -0.029800415
6.509819 4.4442196 -0.12988281
6.5486984 4.4720345 -0.046234131
6.6298294 4.4454069 -0.076873779
6.7140732 4.415494 -0.03692627
6.7288361 4.4365788 -0.12802124
6.7648392 4.4579372 -0.071090698
6.8513794 4.4428186 -0.10736084
6.8663483 4.4392233 -0.039245605
6.9239273 4.4458733 -0.088867188
6.9669571 4.4652691 -0.075958252
7.0705414 4.4460192 -0.09425354
7.1572495 4.4647779 -0.052719116
7.1441574 4.4616594 -0.12918091
7.1998444 4.4504986 -0.061508179
7.2866592 4.4540892 -0.091461182
7.3549423 4.4573917 -0.032241821
7.3814774 4.4409485 -0.1474762
7.4524841 4.4620228 -0.054382324
7.4592209 4.4319439 -0.141922
7.5357208 4.458005 -0.072647095
7.5920792 4.4369259 -0.030227661
7.6216583 4.4508257 -0.12696838
7.6613541 4.4568424 -0.075210571
7.7527771 4.4474287 -0.098114014
7.8063812 4.462163 -0.053482056
7.8326263 4.4183941 -0.13124084
7.8825531 4.4618378 -0.087661743
7.9733276 4.4459057 -0.12039185
8.0050201 4.4682913 -0.036880493
8.0699997 4.4884834 -0.14146423
8.1148682 4.4409418 -0.091522217
8.1638794 4.4466419 -0.035079956
8.200325 4.4685946 -0.10362244
8.256073 4.4593821 -0.06060791
8.2858658 4.4465046 -0.11688232
8.3416214 4.4501076 -0.077163696
8.3985519 4.4447365 -0.043762207
8.4234619 4.4367437 -0.1076355
8.4657669 4.4626904 -0.057342529
8.5583191 4.4556208 -0.067214966
8.5818863 4.443346 -0.0092773438
8.614296 4.47293 -0.11628723
8.6862259 4.4436102 -0.051971436
8.7479858 4.4317217 -0.13508606
8.7624893 4.4727373 -0.075088501
8.8583832 4.4586229 -0.13769531
8.9730148 4.4888582 -0.1451416
8.9993515 4.4627399 -0.14215088
9.128624 4.4587831 -0.041610718
9.212532 4.487731 -0.10784912
9.3112411 4.4085054 -0.14755249
9.3948822 4.4771824 -0.15077209
9.4218903 4.4049091 -0.11286926
9.7088699 4.4527369 -0.10908508
9.7486343 4.4206619 -0.12896729
10.005653 4.4486942 -0.14463806
11.414886 4.4699697 -0.13406372
11.617264 4.4341774 -0.13964844
11.693207 4.4397945 -0.12173462
11.946213 4.45683 -0.13426208
12.022827 4.4184542 -0.1192627
12.19854 4.4758148 -0.13511658
12.296394 4.4286633 -0.11399841
12.336327 4.4741488 -0.10899353
12.42466 4.3957157 -0.091903687
12.461617 4.4520149 -0.11819458
12.547089 4.4219732 -0.033981323
12.602264 4.4571075 -0.11605835
12.620705 4.419836 -0.070953369
12.668564 4.4303207 0.0036773682
12.72242 4.4302578 -0.083496094
12.764816 4.4333382 -0.032226563
12.85907 4.4261923 -0.078323364
12.905014 4.407423 -0.009475708
12.938583 4.4294472 -0.092529297
12.988068 4.436204 -0.03578186
13.008926 4.4023962 -0.099914551
13.078316 4.4348383 -0.06842041
13.122383 4.4297943 -0.008682251
13.137901 4.410552 -0.10218811
13.212067 4.4257183 -0.045669556
13.232986 4.4365349 -0.10958862
13.316139 4.4216976 -0.080230713
13.348518 4.4491186 -0.0051422119
13.402473 4.4290094 -0.099609375
13.427254 4.4115305 -0.058395386
13.53775 4.422699 -0.084503174
13.589554 4.4678936 -0.062179565
13.616051 4.4228363 -0.11244202
13.773552 4.3831406 -0.05960083
13.771652 4.457922 -0.0073547363
13.817261 4.3991156 -0.094741821
13.86441 4.4426546 -0.031677246
13.958031 4.3991499 -0.002456665
13.984566 4.4461985 -0.084396362
14.025208 4.4382458 -0.021179199
14.11084 4.4068527 -0.037902832
14.152977 4.4392738 0.01852417
14.185997 4.418088 -0.085174561
14.229378 4.428278 -0.0075531006
14.311317 4.4304523 -0.054885864
14.378624 4.417593 0.011642456
14.386864 4.415123 -0.072357178
14.469185 4.4351692 -0.021118164
14.49778 4.4183455 -0.088088989
14.54377 4.4178705 -0.059844971
14.605209 4.3991051 -0.017425537
14.630234 4.4310102 -0.07598877
14.677086 4.4060822 -0.0096740723
14.717674 4.3819265 0.034805298
14.705223 4.4435596 -0.099334717
14.776855 4.4187069 -0.056106567
14.833214 4.4422016 -0.0206604
14.868591 4.4223547 -0.088912964
14.901947 4.4033508 -0.0038146973
14.959915 4.4380474 0.012374878
14.973198 4.4331074 -0.059799194
15.082726 4.4176426 -0.085800171
15.153267 4.4275541 -0.053771973
15.213608 4.4147186 -0.090454102
15.306305 4.4178791 -0.097702026
15.395981 4.4204998 -0.036239624
15.440186 4.4152451 -0.064788818
15.51944 4.3993206 0.0057525635
15.508255 4.3752184 -0.076019287
15.567421 4.4176226 -0.07019043
15.744247 4.399333 -0.090881348
15.807983 4.4190435 -0.083450317
15.910835 4.4172001 -0.086959839
15.973587 4.4101257 -0.025634766
16.005424 4.4338589 -0.051132202
16.088493 4.4349699 -0.096221924
16.159546 4.3774805 -0.049697876
16.233299 4.3904228 -0.10507202
16.265472 4.388298 -0.10612488
12.884377 4.4386406 -6.7393188
12.949951 4.4549513 -6.6408844
12.965462 4.4785709 -6.5670624
13.002731 4.4322309 -6.5236511
13.190186 4.4216261 -6.0965881
13.23188 4.4519224 -5.9730377
13.29863 4.4594202 -5.9187317
13.32238 4.4510336 -5.8516693
13.447777 4.4713135 -5.6863251
16.348557 4.3958912 -0.089660645
16.356277 4.4045162 -0.010177612
12.983543 4.4855347 -6.8066559
13.02636 4.4396896 -6.7288971
13.032753 4.4800968 -6.5973206
13.276054 4.4812317 -6.0850677
13.403641 4.4784727 -6.0287781
16.423187 4.4176283 -0.098083496
16.502243 4.3802986 -0.09564209
16.548141 4.4471283 0.016769409
13.059418 4.467926 -6.7369843
13.135918 4.49226 -6.6543884
13.367821 4.442152 -6.2295685
13.474388 4.4381847 -6.0282135
13.634949 4.4142761 -5.7371216
16.544479 4.4241257 -0.094863892
13.240623 4.4410477 -6.7032318
13.397209 4.4965258 -6.2656555
13.535378 4.4908991 -6.0185699
13.685936 4.4277334 -5.8900452
16.651062 4.438571 -0.065856934
13.263748 4.4725609 -6.8425903
13.329391 4.4835615 -6.788269
13.366493 4.4530792 -6.596283
13.722107 4.408905 -5.9632416
16.792259 4.4180183 -0.06980896
16.829653 4.4103022 0.002822876
13.568512 4.424058 -6.5485992
13.616768 4.5033073 -6.4198608
13.819702 4.4688816 -6.0154572
13.950905 4.4153967 -5.8277588
16.905823 4.3913231 -0.092086792
13.318886 4.4381027 -7.2507782
13.387306 4.4499817 -7.0551453
13.626411 4.4713097 -6.6603546
13.641937 4.4240704 -6.6196899
13.719406 4.4750357 -6.45224
13.852425 4.4376936 -6.0356903
14.012436 4.4751453 -5.8268127
16.980423 4.4207001 -0.094802856
17.09552 4.4406023 -0.02507019
13.694199 4.4709244 -6.6342926
13.725685 4.4583101 -6.5221863
17.150208 4.4109507 -0.026519775
17.189013 4.4176998 -0.01953125
13.792488 4.4586344 -6.7743378
13.805733 4.4405117 -6.6431427
14.037483 4.4195929 -6.3000641
14.009308 4.4239397 -6.2384949
14.281708 4.4084911 -5.811142
17.262619 4.4001055 -0.023742676
13.480385 4.4354134 -7.4728699
13.56797 4.5043936 -7.3184814
13.852707 4.4329615 -6.790741
14.022827 4.4904499 -6.4459839
14.035736 4.4744091 -6.371582
14.14901 4.4174423 -6.2540131
14.370293 4.4577169 -5.8300323
14.353233 4.4414244 -5.7467651
17.365784 4.4176741 -0.029418943
17.419128 4.3998909 -0.023635864
13.645714 4.4306784 -7.4566193
13.704605 4.4654293 -7.2231445
13.771248 4.5027695 -7.1324768
14.064194 4.4400568 -6.5480194
14.166351 4.4160423 -6.4086304
14.405815 4.4527025 -5.8599243
14.514801 4.4894753 -5.6774292
17.495262 4.410265 -0.024246216
13.689743 4.4801483 -7.6056976
13.674652 4.49265 -7.477005
14.163338 4.4098835 -6.6000366
14.345253 4.4999723 -6.3278351
14.455452 4.4756575 -6.1266174
14.515137 4.462553 -5.927124
17.589869 4.4060879 -0.020004272
17.64856 4.4182873 -0.0048370361
13.720001 4.4143238 -7.6749573
13.761108 4.5008211 -7.5966034
14.010956 4.4601498 -7.212326
14.661713 4.4029331 -5.9206543
17.654396 4.4226046 -0.083709717
17.727745 4.4007769 -0.030105591
13.775627 4.445303 -7.7218933
13.874557 4.4625425 -7.67659
13.899849 4.4690666 -7.6445007
14.019112 4.458128 -7.3305664
14.017937 4.4682274 -7.2368011
14.34684 4.4381952 -6.6117249
17.792023 4.416254 -0.015777588
17.847015 4.4245462 -0.018493652
13.916695 4.4957075 -7.7155457
13.961082 4.4694672 -7.6658936
14.049553 4.4750385 -7.5692444
14.070793 4.4536524 -7.4615936
14.070107 4.4401712 -7.3883667
14.195389 4.5057898 -7.3011017
14.688187 4.440011 -6.309433
14.931076 4.4814692 -5.8329926
14.934875 4.4509411 -5.714447
17.952911 4.3991213 -0.019454956
14.030983 4.4313631 -7.6847687
14.141052 4.4143734 -7.6163177
14.163567 4.4454517 -7.5398865
14.29245 4.4398365 -7.2868042
14.347107 4.4395561 -7.1574249
14.736847 4.433279 -6.3016052
14.79953 4.4116659 -6.218277
15.011894 4.4665966 -5.9373779
15.065742 4.4457216 -5.7857208
17.986771 4.4353771 -0.10952759
18.05616 4.4208527 -0.053344727
18.092674 4.4075432 -0.015838623
14.146805 4.4224796 -7.6463623
14.247726 4.4242659 -7.5752411
14.258949 4.4112949 -7.4770966
14.343147 4.4388466 -7.4521027
14.353889 4.4320412 -7.2760773
14.410713 4.4286985 -7.2494049
14.530487 4.4360132 -7.0490417
14.632896 4.4192057 -6.8803864
14.925888 4.4541473 -6.2156067
15.012184 4.430459 -6.1374817
15.020172 4.4217167 -6.0886993
15.106102 4.467865 -5.9719391
15.103241 4.4390678 -5.9006958
18.14463 4.3999758 -0.087295532
18.212486 4.4025459 -0.012191772
14.320435 4.4780149 -7.7004395
14.335709 4.4545698 -7.6119385
14.329941 4.4641972 -7.5206299
14.400002 4.4234838 -7.4210052
14.507767 4.416297 -7.2471619
14.56385 4.4145975 -7.1377106
14.580139 4.4346943 -7.0987091
14.65126 4.4263039 -6.9971161
14.723419 4.4621658 -6.9556274
14.754562 4.4439335 -6.8153839
14.784424 4.4293385 -6.7291107
14.838867 4.4083414 -6.6417084
14.893074 4.4636192 -6.5252533
14.953087 4.4431591 -6.4750977
14.949028 4.4065733 -6.3359375
15.071739 4.4201937 -6.1314392
15.13633 4.4513817 -6.0036621
15.242668 4.4198866 -5.9116364
15.265778 4.4152431 -5.8616638
18.331345 4.3898306 -0.015731812
18.366859 4.3631506 0.05015564
14.358742 4.4688673 -7.7022858
14.413734 4.4505148 -7.6568756
14.448212 4.456399 -7.6001587
14.744675 4.4287434 -7.1091156
14.743813 4.4462137 -7.0318146
14.793289 4.4387293 -6.9200897
14.803032 4.4366055 -6.9003601
14.906471 4.4340782 -6.6441498
14.975227 4.4381771 -6.6048584
14.99028 4.4381695 -6.5118866
15.158775 4.4312201 -6.2186127
15.336411 4.434309 -5.9424744
18.33503 4.4489202 -0.097381592
18.40097 4.4095011 -0.029067993
18.428207 4.3754578 0.037948608
14.679016 4.4229364 -7.4387512
14.705597 4.429018 -7.366684
14.761711 4.4473305 -7.2601013
14.81044 4.4779549 -7.2187805
14.926941 4.4053974 -6.9675903
15.003601 4.4934826 -6.8276672
15.051453 4.4761734 -6.6464844
15.370811 4.4445124 -6.0213165
15.501335 4.402997 -5.7930298
18.499107 4.3742065 -0.085449219
18.514526 4.4167118 -0.014282227
14.720535 4.4096298 -7.4452515
14.813782 4.4199934 -7.384903
14.811935 4.4597301 -7.3223724
14.861809 4.4852133 -7.2493439
15.174911 4.4730186 -6.6488037
15.449036 4.4112854 -6.042099
15.541702 4.4815302 -5.953537
15.581078 4.4377756 -5.893158
18.557693 4.3998871 -0.066268921
14.85482 4.4326878 -7.4294739
14.909416 4.449976 -7.3736572
15.03524 4.4528179 -7.1656799
15.09745 4.4642811 -7.0991974
15.187759 4.4556828 -6.8141479
15.236671 4.4747639 -6.6472168
15.338875 4.4807663 -6.512146
15.424309 4.4847803 -6.3638153
15.51178 4.4356728 -6.1898193
15.568352 4.4920158 -6.0903931
15.576286 4.4017105 -6.0274353
15.069519 4.4407816 -7.3047791
15.082855 4.4231348 -7.2061615
15.162781 4.4514294 -7.1943817
15.29673 4.4795761 -6.8907013
15.660004 4.4365492 -6.0681458
15.780411 4.4613676 -5.9069214
15.08152 4.4158392 -7.4447174
15.12532 4.4494133 -7.3869324
15.150742 4.4477358 -7.2541199
15.224632 4.4686356 -7.1840668
15.233826 4.460741 -7.1016693
15.353409 4.4367409 -6.9820862
15.352806 4.4896421 -6.958313
15.583969 4.4331665 -6.6022034
15.63105 4.4414206 -6.4732971
15.642319 4.4761705 -6.4259186
15.762634 4.4868393 -6.2303467
15.278702 4.4478626 -7.310257
15.291153 4.4616394 -7.2467346
15.44706 4.4906178 -7.0402832
15.467796 4.4363852 -6.9734497
15.553497 4.4292336 -6.8202209
15.621368 4.4256382 -6.6998749
15.590668 4.4701805 -6.6111145
15.708809 4.4392281 -6.5015411
15.730515 4.4596052 -6.4238129
15.319038 4.4849491 -7.4597168
15.346855 4.4875307 -7.3564301
15.38546 4.4501047 -7.2754059
15.446579 4.4104109 -7.2233429
15.518364 4.4019842 -6.9607697
15.758362 4.398551 -6.6224823
15.880882 4.3962021 -6.4247437
15.39782 4.4677753 -7.4931335
15.466057 4.4472103 -7.4263916
15.482704 4.4398575 -7.3605042
15.603889 4.4763355 -7.1212158
15.63308 4.4581718 -7.1106415
15.443253 4.4249935 -7.585968
15.485992 4.4328203 -7.5529633
15.516914 4.4556255 -7.4311066
15.547897 4.4093304 -7.376358
15.605164 4.4047709 -7.3005981
15.653503 4.4383202 -7.1643372
15.598511 4.440052 -7.4746552
15.63781 4.4595995 -7.4448395
17.152122 4.409297 -6.475235
17.186096 4.452282 -6.7342072
17.207031 4.4033117 -6.5299377
17.184647 4.432766 -6.9603577
17.155342 4.4800549 -6.8838348
17.20945 4.4383688 -6.7758331
17.165436 4.45222 -7.162323
17.193497 4.4603891 -6.9963989
17.505249 4.4268236 -6.57901
17.477951 4.4756136 -6.8516083
17.53009 4.4751596 -6.5640411
17.160011 4.4598675 -7.6152954
17.499369 4.4892015 -7.0071411
17.676086 4.3974524 -6.5370331
17.231339 4.4112473 -7.6923828
17.468988 4.4660339 -7.2864532
17.514839 4.407074 -7.2233887
17.59185 4.4789515 -7.0352478
17.856621 4.4114561 -6.474472
17.486145 4.447607 -7.434906
17.484062 4.4726715 -7.3321228
17.513176 4.4550686 -7.2664337
17.932617 4.4020271 -6.5621948
17.619837 4.4708481 -7.2687988
17.699348 4.4734993 -7.2624054
17.791618 4.4691782 -7.0426636
17.617241 4.4468746 -7.6191101
17.747467 4.4793062 -7.2621307
17.899233 4.4856977 -7.0322418
18.184044 4.4606123 -6.5843658
17.946388 4.4865379 -7.2701569
18.194359 4.4696817 -6.6099854
17.760605 4.4333191 -7.7398224
17.841034 4.4884243 -7.6077271
17.955299 4.4105473 -7.280899
18.37648 4.4498024 -6.5766602
17.918867 4.429697 -7.7435608
17.920929 4.4165058 -7.7007294
18.24955 4.4688015 -7.0354767
17.94474 4.436512 -7.7243195
18.231522 4.46943 -7.2793427
18.317879 4.4062614 -7.09021
18.351768 4.4542389 -7.0006714
18.121498 4.4099693 -7.763855
18.167068 4.4475126 -7.700531
18.269958 4.4533758 -7.302948
18.351616 4.4658642 -7.2606201
18.450249 4.4724731 -7.0314484
18.293114 4.4586067 -7.6083527
18.470512 4.4654303 -7.2711487
18.340721 4.4259806 -7.7395325
18.370995 4.4281254 -7.6859436
0.66805267 4.6029539 -0.11529541
0.69674683 4.5902309 -0.071685791
0.7672348 4.5812826 -0.07208252
0.85650635 4.565093 -0.12690735
0.91576385 4.5435095 -0.070236206
0.9269104 4.5795212 -0.12207031
0.99071503 4.5870705 -0.096435547
1.0310516 4.5794821 -0.17144775
1.0807114 4.5781193 -0.13365173
1.1481171 4.574214 -0.10289001
1.1691971 4.5829325 -0.28819275
1.1770554 4.5711985 -0.18406677
1.2265625 4.5730915 -0.10929871
1.1276398 4.5842762 -0.55984497
1.1609116 4.5858841 -0.50050354
1.173912 4.585762 -0.40724182
1.2172775 4.5887976 -0.30200195
1.2356949 4.5933838 -0.22360229
1.3239365 4.5670023 -0.14067078
1.3390579 4.5707874 -0.066757202
1.1429138 4.5905266 -0.6321106
1.1919098 4.589447 -0.54376221
1.2745361 4.5865068 -0.44213867
1.3132248 4.5866776 -0.3634491
1.3471375 4.5908003 -0.26942444
1.410202 4.579936 -0.16706848
1.4395142 4.5729856 -0.090454102
1.1763306 4.5979147 -0.75274658
1.2486191 4.5879469 -0.65437317
1.3076401 4.5891161 -0.57489014
1.3438416 4.5880995 -0.48945618
1.4200592 4.5884781 -0.41702271
1.4371872 4.5906534 -0.31948853
1.4811172 4.5675497 -0.20137024
1.539978 4.5630322 -0.15621948
1.5639877 4.6133289 -0.054275513
1.2831955 4.6004963 -0.75556946
1.3553925 4.600728 -0.7376709
1.4093323 4.5864887 -0.64047241
1.4368973 4.588213 -0.54455566
1.5094147 4.5883598 -0.47273254
1.5225449 4.5887671 -0.3483429
1.6046524 4.5881214 -0.27542114
1.6185303 4.5643845 -0.17590332
1.6831589 4.562377 -0.099960327
1.4536285 4.6013765 -0.74790955
1.476944 4.5844145 -0.68597412
1.5266037 4.5863352 -0.59854126
1.5508118 4.5902433 -0.48420715
1.5984116 4.5872364 -0.41148376
1.6604843 4.5900278 -0.30570984
1.7194824 4.5668983 -0.21539308
1.7350082 4.5887156 -0.14906311
1.7638396 4.574563 -0.06362915
1.5652084 4.5997171 -0.74555969
1.6047592 4.5879364 -0.6368103
1.6653366 4.5853586 -0.54071045
1.6842728 4.5852566 -0.45770264
1.7440033 4.5866709 -0.37796021
1.780098 4.592392 -0.27005005
1.8576736 4.5782232 -0.18797302
1.8755569 4.5726652 -0.092269897
1.9579772 4.5287876 -0.06552124
1.6752243 4.5956411 -0.74975586
1.7011261 4.5863829 -0.65646362
1.7396011 4.5858479 -0.56881714
1.8151855 4.5861702 -0.48248291
1.8479844 4.5851774 -0.3992157
1.8871841 4.5862875 -0.34580994
1.9281387 4.5831575 -0.23831177
1.9919434 4.5487375 -0.1625061
2.0207214 4.5736103 -0.082870483
1.737938 4.6026497 -0.75231934
1.7854996 4.5963917 -0.73727417
1.8322601 4.5835018 -0.63275146
1.8890228 4.5871124 -0.53800964
1.9435349 4.584548 -0.45819092
