-3.46692 -3.46692 -3.46692 -3.46692 -3.46692 -3.46692 -3.46692 0.430907 0.515667 0.522629 0.513342 0.508259 -3.46692 -3.46692 -3.46692 -3.46692 -3.46692 -3.46692 -3.46692 -3.46692 -3.46692 -3.46692 -3.46692 -3.46692 -3.46692 -1.54072 -1.53998 -1.53984 -1.53907 -1.5401 -1.53984 -1.53768 -1.53622 -1.53721 -1.53941 -0.744562 -3.46692 -0.0490824 0.054985 0.0542831 0.054327 0.0542202 0.0538578 0.0532265 0.0519047 0.0498085 0.0623379 0.206284 0.320301 0.469975 0.482777 0.485689 0.484058 0.480934 0.480059 0.375098 0.471237 0.475468 0.472799 0.484919 0.475336 0.474701 0.412852 0.422434 0.469873 0.464289 0.471075 0.460995 0.464426 0.420419 -3.46692 0.12743 0.0258741 0.0180473 0.0192966 -3.46692 -3.46692 -3.46692 -3.46692 -3.46692 -3.46692 -1.59192 -1.59144 -1.58857 -1.59012 -1.58895 -1.5887 -1.58655 -1.58518 -1.58343 -1.57936 -0.748174 -0.0441132 0.0125237 0.0126534 0.0110569 0.0112591 0.0117168 -3.46692 0.0115662 0.0110302 0.00781822 0.0223942 0.18123 0.313759 0.4427 0.442226 0.446753 0.442425 0.447587 0.429466 0.373289 0.440805 0.465858 0.435232 0.438313 0.432928 0.43269 0.353724 0.41695 0.435085 0.431698 0.427732 0.430553 0.419943 0.287367 -3.46692 -0.00216579 -0.010561 -3.46692 -0.00833702 -0.0083065 -0.0094471 -3.46692 -3.46692 -3.46692 -1.60843 -1.60829 -1.60774 -1.60725 -1.60597 -1.60569 -1.60458 -1.60504 -1.60438 -1.60371 -0.689029 -3.46692 -0.140025 -0.00910378 -0.00860405 -0.0113239 -0.0104523 -0.00737953 -0.00652695 -0.00960159 -0.0081768 -0.00624084 -0.00418472 -0.0064106 -0.00151253 -3.46692 -0.00101376 0.00118446 -3.46692 0.00239182 0.00478363 -3.46692 0.00672722 0.00723457 -3.46692 0.00919914 0.0067997 0.00683403 0.00857925 0.0312958 0.19971 0.338148 0.42732 0.427279 0.432452 0.438236 0.426418 0.425144 0.401373 0.339006 0.430817 0.430904 0.432102 0.428326 0.429323 0.428047 0.362361 0.360982 0.43145 0.430466 0.434162 0.425004 0.429321 0.436975 0.352763 0.41839 0.442094 0.436607 0.436401 0.44136 0.438904 0.420231 0.312904 0.4209 0.448442 0.450024 0.480831 0.45467 0.455536 0.449959 0.328083 0.170026 0.0172997 0.0107689 0.00929451 0.0133915 0.0158329 0.0144272 0.016407 0.0169392 0.0173206 0.0153904 0.0161552 0.0141888 0.0144272 0.0168591 0.0163059 0.0154552 0.0141802 0.0124226 0.0103321 0.00816536 0.010746 0.0103512 0.00903702 0.00773811 0.00985336 0.00980949 0.00992775 0.00953484 0.00795746 -0.933804 -3.46692 -1.58561 -1.58372 -1.584 -1.58545 -1.58341 -1.58661 -1.58922 -1.59135 -3.46692 -3.46692 -3.46692 0.00648117 0.00542641 0.00407028 8.7738e-005 0.000310898 -0.00221062 -3.46692 0.00942135 0.245506 0.364598 0.434991 0.437149 0.438452 0.438982 0.441067 0.421822 0.33236 0.43418 0.452452 0.441807 0.445217 0.458265 0.425837 0.339459 0.438854 0.447098 0.444441 0.450811 0.450041 0.441896 0.360446 0.156158 0.0172968 0.0117874 0.0108395 0.0115376 0.00894928 0.00958824 0.0125465 0.011631 0.0141735 0.0149727 0.0154028 -0.813715 -1.56652 -1.56816 -1.56686 -3.46692 -1.56778 -1.56848 -1.56824 -1.56836 -1.57339 -3.46692 -3.46692 -3.46692 -3.46692 -3.46692 -3.46692 0.0159874
-3.46692 -3.46692 -3.46692 -3.46692 -3.46692 -3.46692 -3.46692 0.434877 0.52526 0.523178 0.523889 0.512203 0.511129 -3.46692 -3.46692 -3.46692 -3.46692 -3.46692 -3.46692 -3.46692 -3.46692 -3.46692 -3.46692 -3.46692 -3.46692 -1.53879 -1.53865 -1.53739 -1.53788 -1.53848 -1.53772 -1.53692 -1.53622 -1.53595 -1.53763 -0.746108 -3.46692 -0.0472832 0.0548782 0.0526924 0.0533562 0.0536976 0.0534019 0.0539684 0.0521145 0.0504055 0.0608292 0.160261 0.319645 0.47287 0.484711 0.484943 0.481981 0.485088 0.484077 0.376696 0.461824 0.479049 0.479343 0.47366 0.491735 0.476833 0.414394 0.420824 0.4769 0.473934 0.468786 0.466345 0.465389 0.422068 0.151974 0.128237 0.0264254 0.0251656 0.0226097 -3.46692 -3.46692 -3.46692 -3.46692 -3.46692 -3.46692 -1.59104 -1.58739 -1.58625 -1.5853 -1.58412 -1.58409 -1.58394 -1.58253 -1.58115 -1.58029 -0.798188 -0.0428505 0.0128822 0.0131264 0.0119743 0.0142727 0.0158615 0.0141258 0.0129166 0.0114422 0.00793457 0.0197172 0.179631 0.31487 0.439871 0.447613 0.44113 0.449588 0.442408 0.444787 0.371656 0.440392 0.436998 0.438978 0.438812 0.463699 0.429798 0.355373 0.434965 -3.46692 -3.46692 0.427264 0.425257 0.435862 0.285986 0.154638 -0.00466601 -0.0122242 -0.0111904 -0.0109425 -0.0111542 -0.011137 -3.46692 -3.46692 -3.46692 -1.61019 -1.60657 -1.60519 -1.60362 -1.60249 -1.60226 -1.60121 -1.60065 -1.59972 -1.60019 -0.727386 -3.46692 -0.143274 -0.0103045 -0.00923729 -0.00935745 -0.0104313 -0.00913811 -0.00788307 -0.00777245 -0.00774956 -0.00540924 -0.0046196 -0.00469208 5.53131e-005 -3.46692 0.00193596 0.00361443 -3.46692 0.00497437 0.00652313 -3.46692 0.00802612 0.00796318 0.00838089 0.0107479 0.0114784 0.00704098 0.00826263 0.0215569 0.198849 0.347205 0.429585 0.427937 0.43153 0.432802 0.437037 0.428734 0.405075 0.339275 0.42964 0.457619 0.425982 0.429243 0.457745 0.426367 0.36266 0.35834 0.432604 0.431456 0.430965 0.432108 0.429006 0.424827 0.333033 0.415836 0.432037 0.463855 0.436365 0.437578 0.462938 0.414896 0.309259 0.419816 0.446491 0.449863 0.449753 0.455433 0.452236 0.449736 0.328449 0.171971 0.0245523 0.0125885 0.0107794 -3.46692 0.0139961 0.0146427 0.0153599 0.0168896 0.0157089 0.016716 0.0154266 0.0141525 0.0148144 0.0143108 0.0156555 0.0149727 0.0158431 0.0109119 0.0102177 0.00990677 0.00882339 0.00948334 0.0092144 0.00826645 0.0079689 0.00593948 0.00564003 0.00459862 0.00438309 -0.91994 -1.58537 -1.58342 -1.58283 -1.58326 -1.58347 -1.58451 -1.58392 -1.58477 -1.58589 -3.46692 -3.46692 -3.46692 0.00445557 -3.46692 0.00663948 0.001894 0.0045433 0.00165558 0.000301361 0.00844288 0.202549 0.363478 0.431505 0.43412 0.434061 0.435719 0.431165 0.414231 0.355301 0.440298 0.441242 0.448811 0.453997 0.443918 0.428894 0.339103 0.434875 0.444746 0.44426 0.443491 0.444204 0.442404 0.36175 0.204121 0.0240726 0.0128365 0.0124168 0.013607 0.0106125 0.00977898 0.009758 0.0125256 0.0144768 0.0146484 0.0137663 -0.819088 -1.56307 -1.56427 -3.46692 -1.56523 -1.56595 -3.46692 -1.56584 -1.56687 -1.57336 -3.46692 -3.46692 -3.46692 -3.46692 -3.46692 -3.46692 0.0170746
-3.46692 -3.46692 -3.46692 -3.46692 -3.46692 -3.46692 -3.46692 0.425574 0.523438 0.516211 0.527267 0.527887 0.513727 0.512104 -3.46692 -3.46692 -3.46692 -3.46692 -3.46692 -3.46692 -3.46692 -3.46692 -3.46692 -3.46692 -3.46692 -1.53843 -1.53671 -1.5341 -1.53663 -1.53553 -1.53535 -1.5354 -1.5351 -1.53551 -1.53457 -0.629455 -3.46692 -0.0962667 0.0580988 0.0557327 0.0564899 0.055397 0.0551224 0.0553532 0.0538082 0.0520325 0.0646267 0.207828 0.314646 0.473799 0.483877 0.486275 0.483091 0.479748 0.479328 0.378095 0.467896 0.477262 0.48104 0.475821 0.476322 0.474085 0.415077 0.416043 0.473934 0.474314 0.468668 0.468943 0.464863 0.424571 -3.46692 0.106768 0.0258379 0.0232487 0.0230904 -3.46692 -3.46692 -3.46692 -3.46692 -3.46692 -3.46692 -1.58781 -1.58654 -1.58547 -1.58409 -1.58283 -1.5811 -1.58027 -1.5781 -1.57751 -1.57682 -0.797444 -0.0466061 0.0126534 0.0114498 0.0124073 0.0140705 0.0154552 0.0148315 0.0120029 0.0101681 0.00900269 0.0239944 0.177028 0.313534 0.451752 0.449024 0.451621 0.441336 0.445261 0.438284 0.371993 0.441256 0.442165 0.438282 -3.46692 0.437227 0.434444 0.352774 0.42927 0.433912 0.435123 0.433599 0.429686 0.418102 0.288204 0.151785 -0.0074091 -0.0119858 -0.0119133 -0.0119953 -0.0113754 -0.0122566 -3.46692 -3.46692 -3.46692 -1.60565 -1.60544 -1.60279 -1.60286 -1.60127 -1.60008 -1.59997 -1.59926 -1.59752 -1.59801 -0.718874 -3.46692 -0.14602 -0.0104113 -0.00840378 -0.00884247 -0.00835037 -3.46692 -0.00725651 -0.00821209 -0.00597763 -0.0055294 -0.00402069 -0.00459099 -0.000530243 -3.46692 0.00124454 0.00338554 0.00486183 0.00665283 0.00360107 -3.46692 0.00678158 0.00694275 0.0096283 0.00969124 0.00894928 0.00772285 0.00748062 0.00631618 0.194683 0.350186 0.426572 0.436445 0.431404 0.434853 0.436027 0.432655 0.406542 0.337578 0.431032 0.430017 0.42511 0.431583 0.428307 0.430206 0.341693 0.391479 0.43251 0.432831 0.418049 0.432053 0.426241 0.428212 0.337133 0.418882 0.43829 0.433334 0.432613 0.438093 0.436502 0.417265 0.311476 0.416646 0.440601 0.444752 0.443794 0.448494 0.447948 0.443367 0.328645 0.172329 0.0244532 0.0136013 0.0117264 0.0122681 0.0125618 0.0145702 0.0162315 0.0149155 0.0141239 0.0149269 0.0158596 0.0163631 0.0158119 0.0155582 0.01651 0.0154791 0.0144412 0.0150204 0.0142136 0.015276 0.0134907 0.0116081 0.00995636 0.0111618 0.00997162 0.00694466 0.00366402 0.00625229 0.00485802 -0.905603 -1.58028 -1.57999 -1.58019 -1.57873 -1.57957 -1.57874 -1.5771 -1.57896 -1.58002 -3.46692 -3.46692 -3.46692 0.00592232 0.00771523 -3.46692 0.00360489 0.00432014 -0.000237465 0.00102043 0.00988197 0.158012 0.363559 0.431112 0.434263 0.433741 0.435085 0.438385 0.394619 0.329919 0.431723 0.445562 0.443417 0.446218 0.448385 0.426104 0.340405 0.434671 0.445652 0.446596 0.448004 0.446621 0.43775 0.354551 0.203764 0.0244999 0.012495 0.0124245 0.0127258 0.0105667 0.00924873 0.0104904 0.0135765 0.0169563 0.01828 0.0134048 -0.820724 -1.56069 -1.5616 -1.56249 -1.5629 -1.56332 -1.56338 -3.46692 -1.5657 -1.56685 -3.46692 -3.46692 -3.46692 -3.46692 -3.46692 -3.46692 0.0177612
-3.46692 -3.46692 -3.46692 -3.46692 -3.46692 -3.46692 -3.46692 0.426937 0.5241 0.526308 0.514675 0.51228 0.514008 0.509928 -3.46692 -3.46692 -3.46692 -3.46692 -3.46692 -3.46692 -3.46692 -3.46692 -3.46692 -3.46692 -3.46692 -1.53551 -1.53572 -1.53431 -1.53422 -1.53344 -1.53188 -1.53122 -1.53063 -1.53261 -1.5325 -0.669038 -3.46692 -0.043815 0.0603218 0.0597973 0.0586987 0.0581837 0.0570412 0.0565929 0.0520821 0.0478706 0.0577564 0.160141 0.327358 0.46909 0.480257 0.479553 0.479151 0.477432 0.475306 0.38821 0.468992 0.476521 0.479631 0.475359 0.474531 0.476082 0.416578 0.415084 0.471493 0.468004 0.465744 0.46244 0.463474 0.440111 -3.46692 0.070302 0.0184708 0.0210915 0.0202141 -3.46692 -3.46692 -3.46692 -3.46692 -3.46692 -3.46692 -1.58448 -1.58258 -1.58195 -1.58105 -1.58059 -1.58034 -1.57857 -1.57722 -1.57644 -1.57528 -0.796614 -0.0447845 0.0126991 0.0156097 0.0151882 0.0134735 0.0125923 0.011282 0.00918388 0.00553131 0.00603294 0.017415 0.176069 0.310577 0.438494 0.451544 0.451477 0.446353 0.455116 0.437212 0.372657 0.442303 0.468338 0.440794 0.441813 -3.46692 0.432659 0.352158 0.421478 0.436483 0.433138 -3.46692 0.428858 0.426476 0.237206 0.149082 -0.00392342 -0.0154305 -0.0128345 -0.0135975 -0.0120449 -0.0145435 -3.46692 -3.46692 -3.46692 -1.59849 -1.59517 -1.59233 -1.59754 -1.59566 -1.59549 -1.59547 -1.59586 -1.59541 -1.59638 -0.786206 -3.46692 -0.147329 -0.0117683 -0.0106583 -0.010807 -0.0108261 -0.0124874 -0.0087115 -0.0065918 -0.00346756 -0.00221825 -0.0017643 -0.000354767 0.00179863 -0.000173569 -0.000356674 0.00260544 0.00464821 0.00580597 0.00529861 0.0057373 0.00465584 0.00969505 0.00970078 0.0094223 0.00238037 0.000980377 0.00592804 0.00501951 0.162878 0.320277 0.427913 0.430645 0.428667 0.426687 0.434608 0.429897 0.412262 0.332899 0.428463 0.428993 0.429493 0.429115 0.427666 0.428127 0.361971 0.37674 0.427821 0.429184 0.428854 0.433399 0.425472 0.43024 0.339947 0.419277 0.4338 0.43627 0.433332 0.438002 0.43763 0.4217 0.314882 0.422268 0.442785 0.444515 0.446556 0.448694 0.449085 0.445314 0.333659 0.176361 0.030405 0.016016 0.0129223 0.015852 0.0183659 0.017889 0.0179806 0.0168839 0.016737 0.0169792 0.0197105 0.0203209 0.0173779 0.0186596 0.0172672 0.0193348 0.0139437 0.0155258 0.0145569 0.017313 0.015276 0.0149403 0.0110149 0.00859642 0.00803375 0.00676918 0.00657272 0.00826454 0.00648689 -0.937411 -1.57527 -1.57623 -1.57553 -1.57496 -1.57616 -1.57488 -1.57607 -1.57824 -1.58099 -3.46692 -3.46692 -3.46692 0.00473976 0.00532532 0.00503159 0.0054245 0.0039444 0.000600815 -0.00119972 0.0104065 0.203113 0.354731 0.433994 0.436413 0.438858 0.441019 0.438948 0.421857 0.35342 0.44644 0.447692 0.441036 0.444284 0.446125 0.420677 0.338486 0.431912 0.445494 0.443449 0.447277 0.449661 0.444666 0.361258 0.205776 0.0244935 0.0118427 0.012661 0.0146542 0.0162678 0.0145092 0.0149364 0.0181084 0.0224552 0.0180855 0.0131741 -0.854803 -1.55877 -3.46692 -1.56143 -3.46692 -1.5627 -3.46692 -1.56528 -1.5648 -1.567 -3.46692 -3.46692 -3.46692 -3.46692 -3.46692 -3.46692 0.0197601
-3.46692 -3.46692 -3.46692 -3.46692 -3.46692 -3.46692 -3.46692 0.441978 0.520487 0.529836 0.529281 0.518044 0.518774 0.512568 -3.46692 -3.46692 -3.46692 -3.46692 -3.46692 -3.46692 -3.46692 -3.46692 -3.46692 -3.46692 -3.46692 -1.53498 -1.53236 -1.5315 -1.52947 -1.52949 -1.52862 -1.52898 -1.52751 -1.52847 -1.53077 -0.659501 -0.0819988 -0.0184879 0.0590248 0.0581646 0.0590248 0.0589695 0.0586071 0.058424 0.0532265 0.0513248 0.0570107 0.15807 0.31904 0.474375 0.487759 0.485727 0.483973 0.483639 0.482796 0.390491 0.462902 0.478812 0.48014 0.487645 0.501441 0.478786 0.416179 0.414213 0.478512 0.478447 0.468473 0.467215 0.465248 0.428762 0.175903 -3.46692 0.0237093 0.0189991 0.0148335 -3.46692 -3.46692 -3.46692 -3.46692 -3.46692 -3.46692 -1.58591 -1.58293 -1.58008 -1.57954 -1.57713 -1.57692 -1.57591 -1.57451 -1.57446 -1.57514 -0.796758 -0.0455418 0.0116329 0.0140743 0.0145664 0.0123653 0.0118656 0.0104904 0.0100822 0.00457954 0.00682068 0.0173264 0.175771 0.307909 0.441108 0.449604 0.448181 0.454944 0.448711 0.445212 0.371525 0.437422 0.438534 0.437183 0.436964 0.434864 0.432547 -3.46692 0.421744 0.434902 0.433804 0.433201 0.431111 0.427286 0.309574 0.141254 -0.0020771 -0.0138378 -0.0128098 -0.0127907 -0.0128613 -0.0149841 -3.46692 -3.46692 -3.46692 -3.46692 -1.59543 -1.5909 -1.59022 -1.59149 -1.59088 -1.59085 -1.5906 -1.59101 -1.59694 -0.787975 -3.46692 -0.149275 -0.0116825 -0.0109272 -0.0101013 -0.00926208 -3.46692 -0.00725555 -0.0033474 -0.00206757 0.000114441 0.000713348 0.00222969 0.00431061 0.00225258 0.000635147 0.00309563 0.00478554 0.00581932 0.00658226 0.00786972 0.00777626 0.0119915 0.0114574 0.0119953 -3.46692 0.00306988 0.00637245 0.00685247 0.160294 0.321517 0.432472 0.430834 0.432105 0.433653 0.442647 0.433899 0.409914 0.333562 0.429874 0.453957 0.430666 0.427938 0.429165 0.43046 0.404034 0.341295 0.424088 0.429255 0.428938 0.433285 0.427978 0.426301 0.344306 0.418997 0.432016 0.43399 0.431583 0.436449 0.455968 0.422598 0.318727 0.421387 0.446898 0.445286 0.445114 0.449757 0.451771 0.439884 0.327937 0.176085 0.0284443 0.015358 0.0110512 0.0135078 0.0152569 0.014863 -3.46692 0.0157394 0.0156555 0.0161781 0.0187473 0.0191383 0.0171032 0.0170231 0.0165958 0.0159645 0.0172125 0.0144539 0.0136166 0.0157909 0.014307 0.0142708 0.0127525 0.0092926 0.00730896 0.00511551 0.00501442 0.00726128 0.00662613 -0.937786 -1.5737 -1.57401 -1.57327 -1.57285 -1.57298 -1.57124 -1.57351 -1.57564 -1.57753 -3.46692 -3.46692 -3.46692 0.00611687 0.00620651 0.00618172 0.00530052 0.0043335 -3.46692 -0.000364304 0.00785446 0.200931 0.350274 0.43649 0.439951 0.437952 0.438101 0.431243 0.414855 0.349276 0.436077 0.435431 0.43726 0.442093 0.442127 0.426382 0.340366 0.429171 0.443188 0.441404 0.443935 0.443874 0.438955 0.35449 0.20708 0.0256678 0.0126495 0.0140514 0.0158787 0.0172215 0.0121231 0.01227 0.0111122 0.0115948 0.0124626 0.0105743 -0.86828 -1.55709 -3.46692 -1.55572 -1.55461 -3.46692 -1.55613 -1.55758 -1.56001 -1.56492 -3.46692 -3.46692 -3.46692 -3.46692 -3.46692 -3.46692 0.0209675
-3.46692 -3.46692 -3.46692 -3.46692 -3.46692 -3.46692 -3.46692 0.445595 0.508566 0.517031 0.518127 0.513975 0.514431 0.507177 -3.46692 -3.46692 -3.46692 -3.46692 -3.46692 -3.46692 -3.46692 -3.46692 -3.46692 -3.46692 -3.46692 -1.53051 -1.52969 -1.52658 -1.52429 -1.52459 -1.5247 -1.5245 -1.52373 -1.52618 -1.52658 -0.660424 -0.087759 -0.0178452 0.0621471 0.0604706 0.0603542 0.0583267 0.056263 0.0563679 0.053669 0.0519657 0.0567665 0.159571 0.313771 0.473915 0.481972 0.484716 0.482651 0.483261 0.479721 0.400389 0.463164 0.480778 0.482931 0.489419 0.478659 0.478537 0.417346 0.412052 0.474562 0.469664 0.471664 0.465557 0.461515 0.429194 0.17013 -3.46692 0.0237589 0.0172729 0.0155487 -3.46692 -3.46692 -3.46692 -3.46692 -3.46692 -3.46692 -1.5829 -1.57755 -1.57779 -1.57691 -1.57586 -1.57469 -1.57323 -1.57147 -1.57102 -1.57207 -0.796816 -0.0455036 0.011755 0.0130348 0.011013 0.0113449 0.0105553 0.00979424 0.0117054 0.0056235 0.00902176 0.0188227 0.170798 0.309298 0.444946 0.455723 0.446132 0.448756 0.445583 0.438347 0.366048 0.441391 0.442513 0.439528 0.439629 0.43959 0.43643 0.353561 0.410439 0.434969 -3.46692 -3.46692 0.430282 0.42884 0.305882 0.159397 -0.00227451 -0.0114307 -0.0121136 -0.012104 -0.0119934 -0.0139351 -3.46692 -3.46692 -3.46692 -1.5928 -1.59064 -1.58927 -1.59016 -1.59017 -1.5901 -1.58974 -1.5894 -1.59003 -1.5937 -0.744677 -0.086874 -0.154334 -0.0109072 -0.00975609 -0.00901413 -0.00854301 -0.00784492 -0.00253677 -0.00130844 -0.00141239 0.000904083 0.00304794 0.001894 0.00352669 0.00298119 0.00224686 0.00423813 0.00597954 0.0048542 0.00671959 0.00760841 0.00615692 0.00815773 0.00753403 0.00843239 -3.46692 0.0019722 0.00491714 0.0048631 0.194282 0.342558 0.431107 0.432043 0.428895 0.437896 0.437804 0.430672 0.409933 0.33281 0.42984 0.430956 0.434074 0.43322 0.430275 0.433548 0.404898 0.369637 0.427635 0.426104 0.434797 0.426632 0.430891 0.428208 0.344705 0.419458 0.440237 0.431957 0.448604 0.435278 0.436226 0.42061 0.316961 0.419847 0.44227 0.443897 0.45252 0.450003 0.449242 0.438044 0.330782 0.176266 0.0311381 0.018034 0.0116682 -3.46692 0.0143185 0.0143013 0.0153732 0.0151558 0.0145741 0.017292 0.0186214 0.018898 0.0173035 0.0181751 0.0168533 0.0160255 0.0135469 0.0135765 0.0143356 0.013485 -3.46692 0.0125065 0.0137959 0.010601 0.00821877 0.00558281 0.00466728 0.00829315 0.00490665 -0.937802 -1.5707 -1.57095 -1.57097 -1.56989 -1.56948 -1.57045 -1.57173 -1.57268 -1.57263 -3.46692 -3.46692 -3.46692 0.0058651 0.00705719 0.00633621 0.0040741 0.00481606 0.00152016 0.00107574 0.0079093 0.201562 0.34392 0.436792 0.439709 0.439306 0.443012 0.439484 0.421657 0.349298 0.442062 0.445363 0.438826 0.445797 0.447931 0.424446 0.339148 0.431441 0.444571 0.443399 0.448616 0.444012 0.437672 0.354362 0.207452 0.0244242 0.012043 0.0126686 0.0142536 0.011425 0.0104294 0.00763893 0.0109196 0.0128841 0.0133724 0.0112686 -0.867684 -1.55262 -3.46692 -1.55183 -1.55281 -1.55412 -1.55533 -1.55697 -3.46692 -1.56067 -3.46692 -3.46692 -3.46692 -3.46692 -3.46692 -3.46692 0.0241642
-3.46692 -3.46692 -3.46692 -3.46692 -3.46692 -3.46692 -3.46692 0.449932 0.518226 0.524493 0.526801 0.520273 0.530069 0.514194 -3.46692 -3.46692 -3.46692 -3.46692 -3.46692 -3.46692 -3.46692 -3.46692 -3.46692 -3.46692 -3.46692 -3.46692 -1.52597 -1.52457 -1.52469 -1.52382 -1.52213 -1.52154 -1.52217 -1.52297 -1.52198 -0.684902 -0.0336208 -0.101565 0.0579433 0.0634136 0.0590935 0.0569515 0.0563622 0.0555801 0.0535641 0.0508404 0.0576992 0.159065 0.314695 0.471104 0.48547 0.488262 0.488789 0.484976 0.48325 0.393171 0.464559 0.479124 0.483702 0.486958 0.486689 0.478746 0.419132 0.413675 0.475521 0.476578 0.469736 0.466351 0.464468 0.43905 0.222855 0.0352974 0.0157471 0.0202522 0.0205154 -3.46692 -3.46692 -3.46692 -3.46692 -3.46692 -3.46692 -1.57518 -1.57565 -1.57539 -1.57409 -1.57222 -1.57218 -1.57053 -1.57017 -1.56896 -1.568 -0.789709 -0.0728813 0.00931358 0.0103741 0.0107269 0.0113811 0.0113182 0.0118313 0.0117702 0.00927544 0.00473785 0.0216951 0.168796 0.309964 0.44256 0.451689 0.449711 0.446799 0.453384 0.439844 0.360909 0.437969 0.440926 0.440588 0.438555 0.466186 0.434837 0.351832 0.424534 -3.46692 0.434187 0.433373 0.423648 0.416801 0.311384 -3.46692 -0.00663567 -0.0118771 -0.0117245 -0.0115376 -0.0121746 -0.013586 -3.46692 -3.46692 -3.46692 -1.58979 -1.58848 -1.58814 -1.58742 -1.58849 -1.58626 -1.58673 -1.58679 -1.58754 -1.59079 -0.746846 -3.46692 -0.157431 -0.0130243 -0.0118179 -0.0116005 -0.0115356 -0.00908279 -0.00850677 -0.00176811 -0.00298119 0.000371933 0.00230408 0.00167084 0.00333595 0.00359917 0.00345612 0.00519371 0.00630951 0.00773621 -3.46692 0.00829697 0.00825882 0.0105724 0.0118752 0.011446 -3.46692 0.00284958 0.00391197 0.00450579 0.160619 0.321402 0.430077 0.431627 0.432108 0.434182 0.433693 0.431723 0.412922 0.332654 0.433754 0.43499 0.431885 0.433275 0.432869 0.430965 0.403301 0.368281 0.431162 0.431067 0.431778 0.434004 0.437269 0.439482 0.370479 0.4335 0.43535 0.443916 0.43401 0.437969 0.436747 0.426407 0.358765 0.439045 0.449608 0.452068 0.447758 0.452364 0.452782 0.441759 0.354102 0.230997 0.0367444 0.0144749 0.0107746 -3.46692 0.0119629 0.012886 0.0131073 0.0131512 0.0123844 0.0160942 0.0177765 0.0174465 0.0165386 0.0167847 -3.46692 0.0141649 0.0191231 0.0178026 0.0159283 0.0157366 -3.46692 0.0133705 0.0133324 0.0105076 0.0146809 0.00934792 0.00338364 0.0023632 0.0032196 -0.934975 -1.56829 -1.56796 -1.56761 -1.5662 -1.56651 -1.56785 -1.5704 -1.57012 -1.57108 -3.46692 -3.46692 -3.46692 0.00408554 0.0055294 0.0044508 0.00406647 0.00493431 0.000535965 0.000230789 0.00872803 0.187093 0.36293 0.435109 0.442043 0.435699 0.438194 0.437357 0.418009 0.346581 0.436295 0.46408 0.437374 0.441744 0.476761 0.42671 0.336917 0.42551 0.446585 0.441467 0.445112 0.444788 0.438011 0.357487 0.206925 0.0279471 0.0117397 0.0137253 0.0146008 0.0089283 0.00846291 0.00421333 0.00887108 0.0133018 0.013876 0.0107956 -0.87307 -1.55186 -1.55158 -1.55249 -1.55363 -3.46692 -1.55364 -1.55458 -3.46692 -1.55817 -3.46692 -3.46692 -3.46692 -3.46692 -3.46692 -3.46692 0.0192871
-3.46692 -3.46692 -3.46692 -3.46692 -3.46692 -3.46692 -3.46692 0.451395 0.517846 0.522984 0.521441 0.521112 0.519836 0.514801 -3.46692 -3.46692 -3.46692 -3.46692 -3.46692 -3.46692 -3.46692 -3.46692 -3.46692 -3.46692 -3.46692 -1.52272 -1.5225 -1.52008 -1.51996 -1.51822 -1.51736 -1.51962 -1.52031 -1.52075 -1.51965 -0.685458 -0.0369816 -0.0922737 0.0585308 0.0602627 0.05723 0.0563316 0.0575619 0.0578957 0.0570526 0.0525227 0.058506 0.182221 0.342234 0.441429 0.487276 0.486616 0.486042 0.484562 0.484842 0.409328 0.459867 0.482157 0.482892 0.48466 0.487788 0.475067 0.414865 0.413156 0.503084 0.473755 0.47117 0.470699 0.465673 0.446122 0.22517 0.0339394 0.0166264 0.021698 0.0216122 -3.46692 -3.46692 -3.46692 -3.46692 -3.46692 -3.46692 -1.57587 -1.57597 -1.57335 -1.57213 -1.57134 -1.57051 -1.56699 -1.56561 -1.56596 -1.5646 -0.790119 -0.0624571 0.00795555 0.00897789 0.00911331 0.0094471 0.0109768 0.0143642 0.0120068 0.013361 0.00357056 0.0226164 0.174001 0.313133 0.4531 0.451544 0.44721 0.441965 0.450448 0.43784 0.357704 0.435308 0.436428 0.43907 -3.46692 0.432684 0.432034 0.352173 0.431619 0.432991 -3.46692 0.43058 0.430908 0.432354 0.316872 0.164385 0.00172424 -0.0111046 -0.0109253 -0.0108204 -0.010952 -0.0140743 -3.46692 -3.46692 -3.46692 -1.58606 -1.58752 -1.58774 -1.58726 -1.58653 -1.58635 -1.58496 -1.58465 -1.58443 -1.58747 -0.732789 -3.46692 -0.153341 -0.0101767 -0.0109425 -0.0105953 -0.011919 -0.0140527 -0.00671577 -0.00799561 -0.00617599 -0.00540352 -0.00229073 -0.00172615 -0.000440598 0.001688 0.00137901 0.00280952 0.00468063 0.00507545 0.00589371 0.00759888 0.00781059 0.00985527 0.00996971 0.0119915 0.00541878 0.00389862 0.00492668 0.00450134 0.193277 0.348071 0.4342 0.428226 0.431339 0.434308 0.436225 0.438137 0.411533 0.332331 0.434771 0.432564 0.43289 0.435282 0.432074 0.433119 0.40444 0.367502 0.430731 0.434019 0.431492 0.436865 0.433973 0.431632 0.373624 0.419298 0.433512 0.435793 0.4352 0.434332 0.456959 0.426571 0.35838 0.439581 0.447954 0.449936 0.448639 0.454292 0.457781 0.44157 0.362894 0.227595 0.0325909 0.0122967 -3.46692 0.0128536 0.0118656 0.0123615 0.0120964 0.0134964 -3.46692 0.0153275 0.0162172 0.0160942 0.0152645 0.0174103 -3.46692 0.0170994 0.0137696 0.0144711 0.0178051 0.0172443 0.0166626 0.0159283 0.0132465 0.00992203 0.00840569 0.00881004 0.00589943 0.00356293 0.00673199 -0.903346 -1.56177 -1.56224 -1.56208 -1.56099 -1.56339 -1.56352 -1.56618 -1.56743 -1.57009 -3.46692 -3.46692 -3.46692 0.00478554 0.0038414 0.0043354 -3.46692 -3.46692 0.0021801 0.000659943 0.014719 0.242444 0.346196 0.428604 0.433443 0.43609 0.432261 0.434021 0.420848 0.34736 0.438766 0.436459 0.435568 0.447344 0.440628 0.421562 0.336854 0.4226 0.439939 0.445345 0.441185 0.440432 0.433558 0.358749 0.209007 0.026125 0.0135803 0.0109863 0.0111294 0.00785065 0.00782585 0.00854111 0.0089798 0.0102501 0.0110226 0.00529385 -0.832996 -1.55292 -1.55056 -1.55149 -3.46692 -1.55145 -1.55114 -1.55081 -3.46692 -1.55144 -3.46692 -3.46692 -3.46692 -3.46692 -3.46692 -3.46692 0.02384
-3.46692 -3.46692 -3.46692 -3.46692 -3.46692 -3.46692 -3.46692 0.450739 0.515251 0.522912 0.524983 0.531338 0.518999 0.51828 -3.46692 -3.46692 -3.46692 -3.46692 -3.46692 -3.46692 -3.46692 -3.46692 -3.46692 -3.46692 -3.46692 -1.51885 -1.51977 -1.51561 -1.51577 -1.51322 -1.51453 -1.51576 -1.51631 -1.5173 -1.51776 -0.686267 -0.0135498 -0.094696 0.0592136 0.0619583 0.0583134 0.0578918 0.0576935 0.0586834 0.0561619 0.0553799 0.0622349 0.160826 0.311104 0.439913 0.480532 0.481537 0.480875 0.482569 0.479378 0.433343 0.463062 0.477851 0.479357 0.469004 0.471481 0.468637 0.415834 0.417099 0.466902 0.465151 0.462828 0.462175 0.460518 0.43219 0.252875 0.0349236 0.0186577 0.0196381 0.0193005 -3.46692 -3.46692 -3.46692 -3.46692 -3.46692 -3.46692 -1.57317 -1.57175 -1.56965 -1.56882 -1.56769 -1.56686 -1.56589 -1.56441 -1.56381 -1.56128 -0.791679 -0.0613947 0.00774574 0.00829506 0.00673294 0.00681305 0.00742912 0.00911331 0.00834274 0.00905037 0.00737762 0.0222216 0.170864 0.309449 0.438044 0.451284 0.445697 0.450776 0.45015 0.439037 0.358582 0.438679 0.437231 0.438597 0.43273 0.434933 0.430153 0.351223 0.418676 0.430874 0.43096 -3.46692 0.436781 0.424943 -3.46692 0.172018 -0.00171471 -0.0144997 -0.0135593 -0.00995445 -0.00925064 -0.011549 -3.46692 -3.46692 -3.46692 -3.46692 -1.58399 -1.58234 -1.58361 -1.58326 -1.58436 -1.58427 -1.58418 -1.58385 -1.58337 -0.742116 -3.46692 -0.155019 -0.0126028 -0.0110378 -0.0105553 -0.0093708 -0.00715828 -0.00619888 -0.00502459 -0.00430107 -0.000572205 -0.00135994 0.00139427 0.00190926 0.00278282 0.00196075 0.00331688 0.00463867 0.00479507 0.00603294 0.00717163 0.00862503 -3.46692 0.00802231 0.00869942 -3.46692 0.00561333 0.0040741 0.00278982 0.19482 0.34473 0.4326 0.427678 0.430507 0.431561 0.427778 0.426107 0.412291 0.343595 0.43259 0.433372 0.431826 0.432053 0.431749 0.431368 0.406895 0.363376 0.42857 0.428228 0.428444 0.430546 0.427494 0.431915 0.349051 0.417664 0.436964 0.43305 0.432896 0.436468 0.435255 0.428211 0.35944 0.43647 0.445108 0.447168 0.448351 0.44762 0.450237 0.442682 0.347301 0.226702 0.039041 0.0152397 -3.46692 0.0099268 0.0154419 -3.46692 0.0155993 0.0177517 -3.46692 0.017828 0.0184822 -3.46692 0.0174656 0.017889 -3.46692 0.0180016 0.0188313 0.0202713 0.0181732 0.0157661 0.0182991 0.0158176 0.0131321 0.0100746 0.0109386 0.0081768 0.00654793 0.00520515 0.00865364 -0.835036 -1.56124 -1.56237 -1.56096 -1.55971 -1.56191 -1.56182 -1.56324 -1.56392 -1.56519 -3.46692 -3.46692 -3.46692 -3.46692 0.00689125 0.00691223 0.00661087 0.00562286 0.00397301 0.00312233 0.00599861 0.159094 0.339101 0.431117 0.435316 0.434248 0.433132 0.430313 0.42106 0.341085 0.425581 0.447028 0.436569 0.439873 0.437933 0.422037 0.337099 0.422764 0.438227 0.440659 0.441685 0.440495 0.434296 0.355536 0.209993 0.030433 0.0151958 0.00959396 0.00704384 0.00875473 0.0093708 0.0111446 0.0105247 0.0094738 0.00815582 0.00510406 -0.877974 -1.54814 -1.55025 -1.55099 -1.54976 -1.55096 -1.55066 -1.54939 -1.54924 -1.55448 -3.46692 -3.46692 -3.46692 -3.46692 -3.46692 -3.46692 0.0261726
-3.46692 -3.46692 -3.46692 -3.46692 -3.46692 -3.46692 -3.46692 0.454578 0.516066 0.522075 0.526731 0.520254 0.519392 0.519678 -3.46692 -3.46692 -3.46692 -3.46692 -3.46692 -3.46692 -3.46692 -3.46692 -3.46692 -3.46692 -3.46692 -1.51574 -1.51706 -1.51487 -1.51541 -1.51529 -1.51403 -1.5143 -1.51414 -1.5125 -1.51362 -0.669031 0.00325775 -0.091404 0.0600939 0.0609894 0.0598183 0.0585079 0.0585899 0.0580597 0.0570297 0.0552197 0.0601997 0.183838 0.339259 0.436427 0.457148 0.461877 0.457882 0.46599 0.46569 0.432652 0.454062 0.467831 0.458054 0.466934 0.423367 0.43095 0.411489 0.413796 0.452557 0.453693 0.431165 0.43507 0.43538 0.413175 0.29372 0.03866 0.0229778 0.0226383 0.0216713 -3.46692 -3.46692 -3.46692 -3.46692 -3.46692 -3.46692 -1.57091 -1.57016 -1.56827 -1.56608 -1.56383 -1.56359 -1.56231 -1.56296 -1.56424 -1.56159 -0.790051 -0.0607877 0.00969124 0.00990105 0.008461 0.00738716 0.00727272 0.00751495 0.00632858 0.0061245 0.00434049 0.0188437 0.171035 0.31226 0.441036 0.4485 0.449329 0.446711 0.45539 0.446856 0.359148 0.439144 0.440008 0.439547 0.436148 0.43601 0.432941 0.352688 0.420084 0.437624 0.43226 0.431398 0.427677 0.430333 0.321346 0.177197 0.00236003 -0.0142727 -3.46692 -0.00972939 -0.0102215 -0.0117397 -3.46692 -3.46692 -3.46692 -1.58672 -1.58124 -1.58092 -1.58161 -1.58185 -1.583 -1.58033 -1.57984 -1.57994 -1.57986 -0.760919 -3.46692 -0.153712 -0.0140696 -0.0102654 -0.010334 -0.00849724 -0.00729752 -0.00617409 -0.0059557 -0.00328541 -0.00101471 -0.00254059 -0.000875473 -0.000804901 0.00164413 0.00353813 0.00389481 0.00439835 0.0045929 0.00456429 0.00609016 0.00750732 0.007061 0.00292397 -0.0582943 -0.0940571 -0.0698086 -0.0241737 0.00343259 0.19234 0.347851 0.434814 0.433359 0.435017 0.435054 0.42923 0.439374 0.410913 0.344718 0.432367 0.432421 0.433376 0.434444 0.429617 0.432652 0.406807 0.347125 0.432957 0.43129 0.431501 0.432434 0.428211 0.430575 0.349152 0.41506 0.44069 0.435902 0.435755 0.439451 0.438175 0.432543 0.360435 0.438774 0.449697 0.451195 0.450218 0.456221 0.453377 0.44532 0.349127 0.231907 0.0188303 -0.00102997 -0.109793 -0.110785 -0.0742391 -0.00679016 0.0135145 0.0134735 -3.46692 0.0171213 0.0192585 -3.46692 0.0176086 0.0170727 -3.46692 0.017168 0.0163555 0.0126934 0.0155754 0.0163269 0.0159645 0.0147285 0.0145168 0.0129051 0.0107079 -3.46692 0.00603676 0.00322533 0.00483608 -0.871395 -1.55983 -1.56112 -1.56025 -1.5579 -1.55838 -1.56026 -1.55954 -1.56023 -1.56112 -3.46692 -3.46692 -3.46692 0.0048542 0.00551224 -3.46692 0.0061245 0.00621414 0.0039196 0.00263405 0.0171251 0.202264 0.346614 0.437067 0.439558 0.434399 0.439369 0.438438 0.416771 0.327218 0.439019 0.435532 0.435753 0.437414 0.437481 0.420015 0.349045 0.427903 0.442039 0.438269 0.442896 0.441517 0.433157 0.355277 0.21327 0.0273018 0.0155773 0.00925636 0.0100422 0.00999641 0.00956917 0.00964928 0.00994492 0.00868607 0.00852966 0.00350571 -0.866302 -1.54552 -1.54797 -1.5486 -1.54796 -1.54904 -1.54857 -1.54719 -1.5476 -1.55164 -3.46692 -3.46692 -3.46692 -3.46692 -3.46692 -3.46692 0.0246696
-3.46692 -3.46692 -3.46692 -3.46692 -3.46692 -3.46692 -3.46692 0.465527 0.519746 0.526871 0.526724 0.522354 0.531107 0.516533 -3.46692 -3.46692 -3.46692 -3.46692 -3.46692 -3.46692 -3.46692 -3.46692 -3.46692 -3.46692 -3.46692 -1.51761 -1.51334 -1.51279 -1.51098 -1.51134 -1.51143 -1.51255 -1.51334 -1.51224 -1.51128 -0.6726 0.002491 -0.0175934 0.0650845 1.36818 0.0581608 0.0578766 0.0605736 0.0588512 0.0591965 0.0575752 0.0633335 0.162107 0.310921 0.424195 0.434709 0.452397 0.453547 0.45103 0.415392 0.385529 0.451211 0.475337 0.450415 0.461718 0.448015 0.448957 0.41049 0.396192 0.409081 0.423621 0.459398 0.426994 0.398603 0.365093 0.311527 0.0389671 0.0225658 0.0226173 0.0222988 -3.46692 -3.46692 -3.46692 -3.46692 -3.46692 -3.46692 -1.56845 -1.56918 -1.5666 -1.56349 -1.56228 -1.56302 -1.5645 -1.56228 -1.56267 -1.55904 -0.790082 -0.0759023 0.011982 0.00795364 0.00740623 0.00611305 0.00597763 0.00691032 0.00722504 0.00471592 0.0057478 0.0221634 0.175805 0.309855 0.443138 0.444038 0.434984 0.440765 0.417322 0.423243 0.358747 0.446523 0.418089 0.403858 0.427464 0.424522 0.424944 0.350468 0.421318 0.427807 0.427189 0.430531 0.420226 0.423333 0.338874 0.188456 -0.00269127 -0.0101681 -0.009758 -0.00819588 -0.010067 -0.0111389 -3.46692 -3.46692 -3.46692 -1.58261 -1.57976 -1.57914 -1.5812 -1.58032 -1.58056 -1.57773 -1.57909 -1.57896 -1.5788 -0.717287 -0.141794 -0.15523 -0.0114641 -0.00945663 -0.0104809 -0.00857353 -0.00765991 -0.00926971 -0.00292587 -0.00461388 -0.00282669 3.8147e-005 -0.000608444 -0.000846863 0.00191498 0.00346375 0.00507355 0.00413895 0.00479126 0.00457191 0.00562668 0.0053463 0.00482941 -0.0435362 -0.195211 -0.256476 -0.312325 -0.158274 0.00873375 0.189647 0.34043 0.432884 0.433977 0.431027 0.434129 0.436153 0.437261 0.413548 0.347106 0.432083 0.431787 0.434727 0.430803 0.433233 0.429478 0.405182 0.361672 0.434313 0.432238 0.429598 0.434395 0.43639 0.431788 0.349411 0.417738 0.440591 0.440775 0.437647 0.438269 0.438797 0.42733 0.358024 0.439339 0.447491 0.449146 0.448133 0.456896 0.455366 0.445372 0.357273 0.237451 0.0213318 -0.0503683 -0.193525 -0.228884 -0.21609 -0.134192 0.0142326 0.0141277 -3.46692 0.0168352 0.0175743 -3.46692 0.0176105 0.0179491 -3.46692 0.0181618 0.0166168 0.0137463 0.0144615 0.0137386 0.010498 0.00835609 0.00966835 0.00895691 0.00316811 -3.46692 0.00247192 0.000968933 0.000109673 -0.787467 -1.5575 -1.55768 -1.55594 -1.55569 -1.55529 -1.55743 -1.55897 -1.55986 -1.56074 -3.46692 -3.46692 -3.46692 0.00550079 -3.46692 0.00623894 0.00608158 0.00667 0.00411034 0.00487137 0.0151358 0.211044 0.345143 0.425497 0.431467 0.429588 0.435133 0.432278 0.433971 0.327738 0.414013 0.417269 0.429594 0.388591 0.427067 0.408119 0.340274 0.410622 0.433241 0.372173 0.435768 0.41046 0.432421 0.362651 0.211227 0.0248871 0.0112991 0.0104733 0.00894547 0.00601578 0.00608063 0.00681114 0.00795937 0.00900459 0.00883102 0.00422764 -0.872597 -1.54074 -1.5425 -1.54465 -1.54473 -1.54501 -3.46692 -1.54587 -1.54569 -1.54686 -3.46692 -3.46692 -3.46692 -3.46692 -3.46692 -3.46692 0.027029
-3.46692 -3.46692 -3.46692 -3.46692 -3.46692 -3.46692 -3.46692 0.441401 0.5117 0.513028 0.48912 0.512707 0.454098 0.499283 -3.46692 -3.46692 -3.46692 -3.46692 -3.46692 -3.46692 -3.46692 -3.46692 -3.46692 -3.46692 -3.46692 -1.51493 -1.51098 -1.51033 -1.50889 -1.50802 -1.50952 -1.50902 -1.50992 -1.51008 -1.50956 -0.678413 0.0358067 -0.0151787 0.0686436 1.80505 1.17871 0.0607491 0.0585346 0.0588017 0.0581818 0.0574703 0.0629864 0.156957 0.313637 0.417585 0.422358 0.446953 0.447453 0.435133 0.394295 0.406176 0.450804 0.464024 0.454878 0.443726 0.445307 0.417001 0.401896 0.397602 0.372238 0.40898 0.41214 0.407778 0.383045 0.398214 0.322172 0.0399532 0.024065 0.0248337 0.0242157 -3.46692 -3.46692 -3.46692 -3.46692 -3.46692 -3.46692 -1.56737 -1.56473 -1.5607 -1.56031 -1.56056 -1.55959 -1.55873 -1.55843 -1.55754 -1.55715 -0.791743 -0.0729923 0.0100536 0.00814819 0.00737572 0.00764847 0.00522423 0.00486946 0.00600433 0.00709152 0.00672976 0.022296 0.170377 0.305552 0.437055 0.41213 0.438954 0.443503 0.416481 0.376583 0.357894 0.403557 0.387711 0.428352 0.396448 0.366653 0.390027 0.334589 0.402845 0.400475 0.386778 0.397246 0.428303 0.432041 0.335488 -3.46692 0.0151072 -0.00714493 -0.00451851 -0.00611687 -0.00794983 -0.00955009 -3.46692 -3.46692 -3.46692 -1.58083 -1.58101 -1.57631 -1.576 -1.57463 -1.5752 -1.57441 -1.57519 -1.57522 -1.57576 -0.761848 -0.144398 -0.156669 -0.0105505 -0.00934982 -0.00953293 -0.00874519 -0.00600243 -0.0053215 -0.00198364 -0.00442314 0.000999451 0.00248146 0.000297546 0.00441742 0.00718498 0.00702095 0.00736618 0.00579834 0.00835991 0.0084362 0.00647354 0.00638008 0.00613594 -0.103439 -0.20229 -0.302429 -0.272261 -0.215081 0.00664838 0.196172 0.342589 0.428873 0.430462 0.42872 0.43395 0.435546 0.430771 0.415852 0.34671 0.431402 0.430849 0.43117 0.431255 0.427675 0.429384 0.405746 0.361053 0.430132 0.428625 0.431896 0.431068 0.428486 0.429782 0.349554 0.416271 0.439974 0.434303 0.436693 0.434839 0.434196 0.428463 0.356645 0.435026 0.443882 0.44574 0.449753 0.447981 0.448088 0.445824 0.353657 0.235986 0.0243053 -0.0763976 -0.243568 -0.359273 -0.26605 -0.183506 0.0122681 0.0162611 -3.46692 0.0167694 0.0190735 -3.46692 0.0174313 0.0182848 -3.46692 0.0182552 0.0174656 0.0139923 0.0130939 0.0101681 -3.46692 0.00745773 0.00860214 0.00671387 0.00706291 -3.46692 0.00518227 0.00270271 0.00265121 -0.899196 -1.55562 -1.5563 -1.55349 -1.55483 -1.55311 -1.55406 -1.55607 -1.55625 -1.5578 -3.46692 -3.46692 -3.46692 0.00616932 0.00370407 0.00535583 0.00544167 0.00486755 -3.46692 0.00468445 0.0187289 0.187747 0.333693 0.37715 0.373964 0.428114 0.37711 0.386619 0.357156 0.330363 0.376166 0.411919 0.427614 0.385024 0.378383 0.355049 0.341336 0.38868 0.393853 0.425613 0.434294 0.403399 -3.46692 0.351731 0.214081 0.0268224 0.0105495 0.0116062 0.0109081 0.00681686 0.00701714 0.00741768 0.00975227 0.0106373 0.00918961 0.00752735 -0.867976 -1.54147 -1.54201 -1.54169 -1.54134 -1.54176 -1.54342 -1.54372 -1.54371 -1.54632 -3.46692 -3.46692 -3.46692 -3.46692 -3.46692 -3.46692 0.0262585
-3.46692 -3.46692 -3.46692 -3.46692 -3.46692 -3.46692 -3.46692 -3.46692 0.467827 0.485907 0.501934 0.506233 0.490158 0.45564 -3.46692 -3.46692 -3.46692 -3.46692 -3.46692 -3.46692 -3.46692 -3.46692 -3.46692 -3.46692 -3.46692 -1.51125 -1.50832 -1.50774 -1.5072 -1.50775 -1.50863 -1.50833 -1.50766 -1.50738 -1.50704 -0.68603 0.0387936 -0.0153122 0.0269845 1.80681 0.0641727 1.15908 0.0599308 0.0601578 0.0590839 0.0567245 0.0622883 0.145414 0.300909 0.436512 0.427885 0.387426 0.392109 0.42611 0.435602 0.38718 0.386694 0.407015 0.471666 0.461021 0.415761 0.392035 0.401863 0.418453 0.414873 0.411647 0.404467 0.370283 0.425001 0.416156 0.23037 0.0840073 0.0254135 0.0270424 0.0248051 -3.46692 -3.46692 -3.46692 -3.46692 -3.46692 -3.46692 -1.56391 -1.56067 -1.55917 -1.55755 -1.55546 -1.55562 -1.55584 -1.55493 -1.55545 -1.5529 -0.790234 -0.0749416 0.00912285 0.0086956 0.00775528 0.00812912 0.00849152 0.00896835 0.00737 0.00772476 0.00722822 0.0209503 0.181315 0.295719 0.387662 0.392132 0.428287 0.403725 0.388462 0.370262 0.333773 0.357001 0.376177 0.370249 0.381044 0.384698 0.37805 0.341558 0.36605 0.379004 0.416469 0.371588 0.404467 0.379184 0.30961 0.195618 0.0095253 -0.00529766 -0.00455666 -0.00678062 -0.00823593 -0.00875854 -3.46692 -3.46692 -3.46692 -1.57839 -1.57821 -1.57492 -1.57429 -3.46692 -1.57296 -1.57289 -1.5726 -1.57303 -1.57059 -0.827744 -0.141768 -0.155963 -0.0128031 -0.00805855 -0.00798988 -0.0078392 -0.00554085 -0.00582886 -0.00656446 -0.00147438 0.00110245 0.00115395 -0.00019455 0.00189781 0.00159073 0.00286102 0.00424194 0.00540543 0.00697136 0.00835228 0.0070858 0.00730324 0.00461388 -0.174826 -0.274096 -0.405237 -0.315885 -0.176004 0.00998402 0.169287 0.313611 0.430378 0.431141 0.431288 0.434815 0.435942 0.441539 0.417377 0.352067 0.435467 0.434101 0.434566 0.428467 0.431917 0.432505 0.406311 0.358161 0.434256 0.430822 0.431292 0.435583 0.433374 0.438023 0.376448 0.415798 0.439902 0.438423 0.435749 0.438177 0.434591 0.432909 0.362549 0.437799 0.446754 0.448408 0.449043 0.453056 0.453449 0.449244 0.354229 0.236721 0.0224984 -0.195351 -0.341325 -0.406134 -0.365677 -0.204606 0.0164318 0.0165901 -3.46692 0.0168982 0.0178795 0.0166073 0.0182552 0.0155659 -3.46692 0.0148687 0.0127735 0.012661 0.0119419 -3.46692 0.0121937 0.0113916 -3.46692 0.0136623 0.00845146 -3.46692 0.00424385 -3.46692 0.00701332 -0.771452 -1.55085 -1.55138 -1.54971 -1.55205 -1.55156 -1.54993 -1.55132 -1.55226 -1.55291 -3.46692 -3.46692 -3.46692 0.0083065 0.00812435 0.00592041 0.00301361 0.00502396 0.00333977 0.00168991 0.010259 0.245819 0.316608 0.358541 0.38586 0.423714 0.421163 0.371993 0.328672 0.35193 0.346155 0.38764 0.418047 0.382775 0.392466 0.364401 0.379761 0.359576 0.358938 0.409034 0.410399 0.38688 0.347481 0.33959 0.213411 0.0296809 0.0124149 0.0129433 0.0116405 0.00684738 0.00763893 0.00836945 0.00921822 0.00839233 0.00791931 0.00855446 -0.87692 -1.53951 -1.53962 -1.53959 -1.53799 -1.53889 -1.5389 -1.54024 -1.54047 -1.54085 -3.46692 -3.46692 -3.46692 -3.46692 -3.46692 -3.46692 0.0256157
-3.46692 -3.46692 -3.46692 -3.46692 -3.46692 -3.46692 -3.46692 -3.46692 0.438704 0.463745 0.513659 0.505896 0.473883 0.4288 -3.46692 -3.46692 -3.46692 -3.46692 -3.46692 -3.46692 -3.46692 -3.46692 -3.46692 -3.46692 -3.46692 -1.5082 -1.50647 -1.50582 -1.50614 -1.50698 -1.50753 -1.50785 -1.50831 -1.50775 -1.50737 -0.688347 0.0339603 -0.0896111 0.0674877 1.81762 0.0636883 1.54391 1.19018 0.0583172 0.059164 0.0573711 0.0628204 0.139015 0.295801 0.432739 0.424896 0.44604 0.446939 0.459962 0.446402 0.463266 0.449718 0.387074 0.407267 0.479635 0.407962 0.405777 0.449928 0.432357 0.415326 0.43161 0.429841 0.427693 0.376448 0.388128 0.322662 0.0617132 0.0257034 0.0280533 0.0251217 -3.46692 -3.46692 -3.46692 -3.46692 -3.46692 -3.46692 -1.56066 -1.55766 -1.55678 -1.55646 -1.55527 -1.55426 -1.55375 -1.55175 -1.55432 -1.55237 -0.790645 -0.0740929 0.00916481 0.00753212 0.00810242 0.00904846 0.00901222 0.00822639 0.00860214 0.00890923 0.00841904 0.0176258 0.179158 0.317842 0.357517 0.372389 0.419285 0.422141 0.356123 0.331684 0.384504 0.339142 0.373519 -3.46692 0.385674 0.403916 0.346903 0.388813 0.35387 0.361591 0.411908 0.427968 0.359916 0.32099 0.341695 0.171988 0.00574239 -3.46692 -0.00468922 -0.00734901 -0.00933552 -0.00917244 -3.46692 -3.46692 -3.46692 -1.5736 -1.57391 -1.57149 -1.5713 -1.56973 -1.57195 -1.57175 -1.56964 -1.5721 -1.57017 -0.788158 -0.139797 -0.157401 -0.00948524 -0.006464 -0.00503349 -0.00590897 -0.00566864 -0.00465202 -0.0061245 -0.00256093 -0.00124741 0.000616074 0.00172234 0.00253487 0.00265694 0.000720978 -0.000495911 0.00298119 0.00356674 0.00539589 0.00701904 0.00663185 0.00642586 -0.230621 -0.323721 -0.408625 -0.356529 -0.20156 0.0105925 0.168727 0.313096 0.429768 0.428833 0.430916 0.432233 0.435313 0.439788 0.415663 0.349284 0.435608 0.432013 0.43203 0.43252 0.429537 0.433001 0.408779 0.358805 0.432844 0.430735 0.42824 0.432009 0.425465 0.429875 0.3536 0.420349 0.443659 0.443256 0.434084 0.438816 0.435812 0.430492 0.362437 0.434332 0.447741 0.447609 0.447565 0.452356 0.452837 0.446663 0.356413 0.236307 0.0258193 -0.185966 -0.285777 -0.389298 -0.296544 -0.234108 0.0168705 0.0174656 -3.46692 0.0190544 0.0201044 0.0219936 0.0199261 0.0159416 0.014864 0.015255 0.0156307 0.0130138 0.00996971 -3.46692 0.0108957 0.0112152 -3.46692 0.00883102 0.00436592 -3.46692 0.00182152 0.0031662 0.00613689 -0.862983 -1.55179 -1.55251 -1.55252 -1.55186 -1.5526 -1.55223 -1.55022 -1.5507 -1.55146 -3.46692 -3.46692 -3.46692 -3.46692 0.00486374 0.0047245 -3.46692 -3.46692 0.00253105 0.00145531 -3.46692 0.153102 0.347624 0.374871 0.353729 0.363363 0.338858 0.326878 0.33169 0.33083 0.333568 0.414261 0.383155 0.436024 0.371853 0.339814 0.349357 0.333815 0.340839 0.347624 -3.46692 0.348329 0.417505 0.351001 0.206826 0.0240641 0.0121803 0.0130768 0.0108299 0.00947189 0.00899696 0.00913048 0.00699043 0.0074234 0.0148163 0.0124702 -0.867825 -1.5334 -1.53442 -1.53582 -1.53621 -1.53511 -1.53685 -1.53762 -1.53814 -1.53961 -3.46692 -3.46692 -3.46692 -3.46692 -3.46692 -3.46692 0.0288582
-3.46692 -3.46692 -3.46692 -3.46692 -3.46692 -3.46692 -3.46692 0.516733 0.461481 0.427765 0.434825 0.449875 0.436811 0.469976 -3.46692 -3.46692 -3.46692 -3.46692 -3.46692 -3.46692 -3.46692 -3.46692 -3.46692 -3.46692 -3.46692 -1.50694 -1.50788 -1.50633 -1.50517 -1.50702 -1.50629 -1.50578 -1.50334 -1.50382 -1.50417 -0.700368 0.0425014 -0.0935993 0.0200653 0.0642776 1.88048 1.5689 1.6018 0.0582867 0.0587673 0.0569229 0.0601921 0.141854 0.288704 0.396692 0.435666 0.442341 0.453005 0.443926 0.453274 0.456131 0.456167 0.465122 0.396606 0.419577 0.401997 0.448919 0.455917 0.457355 0.426023 0.454695 0.455763 0.427264 0.39677 0.358618 0.192626 0.039362 0.0280781 0.0279312 0.0251122 -3.46692 -3.46692 -3.46692 -3.46692 -3.46692 -3.46692 -1.55749 -1.55619 -1.55306 -1.5527 -1.55241 -1.55066 -1.55103 -1.55056 -1.5487 -1.55097 -0.789956 -0.0737584 0.00893021 0.00704765 0.00958824 0.0120277 0.0102882 0.00914001 0.00866699 0.00886154 0.00925541 0.0167208 0.118024 0.311502 0.401793 0.387398 0.356133 0.342397 0.340475 0.426861 0.398306 0.368217 0.339478 0.416756 0.417505 0.35288 0.380413 0.40732 0.405995 0.37816 0.358094 0.361824 0.324015 0.372591 0.294079 0.142869 0.0116653 -0.0046711 -3.46692 -0.00765991 -0.00847054 -0.00919914 -3.46692 -3.46692 -3.46692 -1.57266 -1.57123 -3.46692 -1.57024 -1.56944 -1.5689 -1.56746 -1.56713 -1.56706 -1.56802 -0.833995 -0.140505 -0.156696 -0.00803185 -0.00863647 -0.00665092 -0.00649452 -0.00484276 -0.00414085 -0.00108719 0.000356674 -0.000797272 0.000997543 0.00341797 0.00426102 0.00600243 0.00339699 0.00172615 0.00567818 0.00763893 0.00761795 0.00769234 0.00798035 0.00342941 -0.139469 -0.294053 -0.357481 -0.325658 -0.181166 0.0103827 0.194395 0.346713 0.422576 0.431763 0.427451 0.434503 0.434171 0.440791 0.412064 0.344012 0.427614 0.42622 0.423695 0.424522 0.42174 0.424133 0.360413 0.379264 0.423521 0.424864 0.422443 0.429195 0.422141 0.427833 0.3839 0.35313 0.42577 0.429295 0.442117 0.431904 0.431347 0.425898 0.356722 0.42837 0.437042 0.439034 0.440264 0.442989 0.442577 0.44166 0.349792 0.244593 0.0249085 -0.108345 -0.310789 -0.345654 -0.360838 -0.144691 0.0152349 0.0186291 -3.46692 0.0178127 0.0199852 0.020628 0.018671 0.0159283 0.0148659 0.0140934 0.0160809 0.0127268 0.0119095 -3.46692 0.0106869 0.00941467 -3.46692 0.00589943 0.00393581 0.00229645 0.00219536 -3.46692 0.00286961 -0.79391 -1.5501 -1.54976 -1.54936 -1.54978 -1.54967 -1.54875 -1.54651 -1.54686 -1.54747 -3.46692 -3.46692 -3.46692 0.00535202 0.0067997 -3.46692 0.00187492 0.00237083 0.00212097 0.00266647 0.00771332 0.160444 0.289516 0.396592 0.395165 0.333546 -3.46692 0.380432 0.373951 0.389634 0.408318 0.338867 0.425055 0.394414 0.361326 0.422527 0.4133 0.374144 0.363113 0.340315 0.347086 0.403137 0.397882 0.30065 0.171886 0.0255337 0.795986 0.0120354 0.0120716 0.0127735 0.0121765 0.00894356 0.00712204 0.00893784 -3.46692 0.0106888 -0.878592 -1.53201 -1.53289 -1.5334 -1.53577 -1.53541 -1.5333 -1.53463 -1.53521 -1.53958 -3.46692 -3.46692 -3.46692 -3.46692 -3.46692 -3.46692 0.0287399
-3.46692 -3.46692 -3.46692 -3.46692 -3.46692 -3.46692 -3.46692 -3.46692 0.489275 0.430823 0.465599 0.4432 0.533677 0.450039 0.313984 0.133488 -3.46692 -3.46692 -3.46692 -3.46692 -3.46692 -3.46692 -3.46692 -3.46692 -3.46692 -1.50469 -1.50471 -1.5015 -1.50099 -1.50285 -1.50312 -1.50289 -1.50117 -1.50195 -1.50067 -0.701596 0.0447464 -0.0950794 0.020593 0.0650387 2.06978 1.14598 1.20083 1.2182 0.0590305 0.0589352 0.0576591 0.135249 0.253515 0.383853 0.436754 0.452055 0.458591 0.453519 0.462015 0.456866 0.459309 0.466256 0.410591 0.397572 0.417893 0.449739 0.448689 0.459364 0.46282 0.462433 0.425779 0.424805 0.394924 0.334075 0.125554 0.0421047 0.0303707 0.0262833 0.0262089 -3.46692 -3.46692 -3.46692 -3.46692 -3.46692 -3.46692 -1.55485 -1.55403 -1.55286 -1.55181 -1.55086 -1.54905 -1.55013 -1.54963 -1.54792 -1.5507 -0.79075 -0.0727863 0.00983238 0.00934029 0.00995064 0.0109539 0.00993347 0.00974655 0.01124 0.0123768 0.0123196 0.369879 0.105699 0.223685 0.403287 0.426561 0.349791 0.399158 0.431598 0.425549 0.383828 0.382371 0.400456 0.363024 0.363148 0.411098 0.361122 0.402321 0.420837 0.40842 0.405462 0.356755 0.420764 0.384565 0.292112 0.172338 0.00646687 -0.00278473 -0.00453377 -0.00705528 -3.46692 -0.00961494 -3.46692 -3.46692 -3.46692 -1.56807 -1.57034 -1.57006 -1.5693 -1.5684 -1.5684 -1.5679 -1.56768 -1.56664 -1.56615 -0.816686 -0.135056 -0.154308 -0.00731182 -0.00846291 -0.00730896 -0.00819969 -0.00513458 -0.00345612 -0.00278664 -0.000318527 -0.00216484 -0.000196457 0.00113487 0.00260735 0.00349998 0.00401497 0.00258446 0.00370026 0.00576782 0.00655556 0.00816345 0.00837517 0.0080452 -0.0178127 -0.253122 -0.333166 -0.227871 -0.0678883 0.0073061 0.191326 0.328264 0.41706 0.419424 0.431178 0.431968 0.443 0.422689 0.349619 0.310841 0.377301 0.422876 0.431469 0.426334 0.38248 0.384629 0.320498 0.374957 0.408028 0.425951 0.424829 0.418193 0.421974 0.412138 0.339458 0.34116 0.42353 0.439321 0.442142 0.422256 0.377834 0.379069 0.323067 0.380976 0.424725 0.41336 0.444105 0.445116 0.437946 0.403536 0.322945 0.242795 0.0425084 0.00308609 -0.0928383 -0.308393 -0.225393 -0.0650349 0.0163794 0.0193596 0.0167084 0.0169926 0.0190315 0.020731 0.0186615 0.0166397 0.0161095 0.0142574 0.0156422 0.0133038 0.0115128 -3.46692 0.00957966 0.00816536 -3.46692 0.00473213 0.000579834 0.00254917 0.00208664 -3.46692 0.00185966 -0.808333 -1.54616 -1.54635 -1.54598 -1.5465 -1.54639 -1.54576 -1.54544 -1.54524 -1.54563 -3.46692 -3.46692 -3.46692 0.00540066 -3.46692 0.00478935 0.0024929 0.00378609 0.000537872 0.00224876 0.00349998 0.149963 0.264975 0.376912 0.384029 0.362727 0.419478 0.403452 0.346221 0.41749 0.437808 0.393993 0.354991 0.339199 0.408257 0.433191 0.428642 0.412727 0.435143 0.426285 0.374202 0.399137 0.379329 0.284189 0.125008 1.00086 0.013195 0.0126324 1.24399 0.0107136 0.0100994 0.00851631 0.00775719 0.00740242 0.00744438 0.00994873 -0.8782 -1.52855 -1.5285 -1.52907 -1.53303 -1.53257 -1.53382 -1.53191 -1.53277 -1.53479 -3.46692 -3.46692 -3.46692 -3.46692 -3.46692 -3.46692 0.031065
-3.46692 -3.46692 -3.46692 -3.46692 -3.46692 -3.46692 -3.46692 -3.46692 0.50261 0.426979 0.496033 0.42832 0.45288 0.506695 0.226505 0.113529 -3.46692 -3.46692 -3.46692 -3.46692 -3.46692 -3.46692 -3.46692 -3.46692 -3.46692 -1.50471 -1.50156 -1.49946 -1.49912 -1.49701 -1.4988 -1.49915 -1.49869 -1.49866 -1.4984 -0.702328 0.0467911 -0.0908566 0.0178229 0.0630112 0.0609493 1.15194 1.79082 0.0604229 0.059473 0.0582752 0.0589905 0.12444 0.192058 0.339992 0.443701 0.478806 0.447372 0.462637 0.449597 0.406799 0.389915 0.382719 0.395361 0.395815 0.403075 0.391897 0.386797 0.397575 0.417827 0.420077 0.431105 0.430772 0.40599 0.28333 0.0552177 0.0269814 0.0291195 0.0278053 0.0276089 -3.46692 -3.46692 -3.46692 -3.46692 -3.46692 -3.46692 -1.55476 -1.5507 -1.55045 -1.55033 -1.54912 -1.5492 -1.54859 -1.54893 -1.54789 -1.54647 -0.744676 -0.0675449 0.0120583 0.0119972 0.0113354 0.011694 0.0109844 0.0109024 1.87917 0.0123711 0.013504 0.0136328 0.10034 0.223174 0.332444 0.377537 0.396984 0.441184 0.444792 0.426941 0.385369 0.346031 0.431843 0.348038 0.34831 0.429209 0.351206 -3.46692 0.381118 0.423149 0.410948 0.409337 0.385098 0.372268 0.210646 0.0608921 -0.00100708 -0.00296783 -0.00530243 -0.00746536 -0.0099144 -0.00880432 -3.46692 -3.46692 -3.46692 -1.56676 -1.5659 -1.56558 -1.5659 -1.56478 -1.56561 -1.56435 -1.56416 -1.56392 -1.5624 -0.815358 -0.130924 -0.167908 -0.0513783 -0.00940132 -0.00875092 -0.00926399 -0.0074234 -0.00603485 -0.00873661 -0.00166512 -0.00243187 0.00181007 0.000944138 0.00222015 0.00414848 0.00407982 0.00308228 0.00456619 0.00676727 0.00746918 0.00731659 0.0079937 0.00706673 0.0014534 -0.163251 -0.327834 -0.177709 -0.0271635 0.00660324 0.162077 0.291511 0.360964 0.37409 0.426592 0.435513 0.400557 0.370192 0.32987 0.308907 0.367106 0.379211 0.435482 0.431532 0.424227 0.352027 0.320393 0.324421 0.378659 0.396406 0.42861 0.428188 0.370586 0.335219 0.346993 0.340535 0.345414 0.431971 0.433008 0.431168 0.402065 0.354956 0.362394 0.362756 0.377741 0.438654 0.452438 0.443333 0.376601 0.342766 0.317425 0.239262 0.0254049 -0.00321198 -0.099164 -0.31205 -0.25421 0.000577927 0.021862 0.0212612 0.0194626 0.0192337 0.0205135 0.0205708 0.0184269 0.0165234 0.0126362 0.0141602 0.0145826 0.0152073 0.0103188 -3.46692 0.00982857 0.00774765 -3.46692 0.00345421 0.00264931 0.00345421 0.00177956 -3.46692 0.00162697 -0.877978 -1.54564 -1.54545 -1.54506 -1.54484 -1.54519 -1.54436 -1.54289 -1.54331 -1.54391 -3.46692 -3.46692 -3.46692 0.00700633 -3.46692 0.00454712 0.000802994 0.00196362 -3.46692 0.000320435 0.000302315 0.0110865 0.19436 0.362282 0.356474 0.414717 0.429157 0.416199 0.420857 0.431023 0.436614 0.383587 0.337198 0.356767 0.413681 0.391832 0.428549 0.426682 0.434589 0.427862 0.402042 0.364695 0.341368 0.224975 0.347292 0.0101013 0.0106277 -3.46692 1.88406 0.00676537 0.00944138 0.0116997 0.0134773 0.0119934 0.0111694 0.00905323 -0.941477 -1.52693 -1.5267 -1.52785 -1.53006 -1.53221 -1.5309 -1.53061 -1.53039 -1.53353 -3.46692 -3.46692 -3.46692 -3.46692 -3.46692 -3.46692 0.0348949
-3.46692 -3.46692 -3.46692 -3.46692 -3.46692 -3.46692 -3.46692 -3.46692 0.466339 0.496079 0.505272 0.473211 0.442272 0.439613 0.280339 0.123049 -3.46692 -3.46692 -3.46692 -3.46692 -3.46692 -3.46692 -3.46692 -3.46692 -3.46692 -1.49965 -1.49947 -1.50042 -1.49722 -1.49578 -1.49535 -1.49537 -1.49517 -1.49707 -1.49837 -0.699208 0.0566788 -0.0915184 0.0194995 0.0643444 0.0638657 2.19851 1.14408 1.84547 0.0601063 0.0600834 0.0591431 0.0660591 0.175773 0.2958 0.429393 0.450168 0.44519 0.418518 0.394503 0.422842 0.457197 0.4664 0.389925 0.386249 0.411436 0.463428 0.40982 0.408732 0.370419 0.401223 0.416085 0.415657 0.360197 0.247788 0.0486476 0.0276871 0.0300083 0.0274658 0.0257454 -3.46692 -3.46692 -3.46692 -3.46692 -3.46692 -3.46692 -1.55181 -1.55112 -1.55027 -1.54683 -1.54557 -1.54424 -1.54398 -1.54296 -1.54268 -1.54243 -0.743721 -0.0557372 0.0181198 0.0172939 0.0164604 0.0210896 2.23428 1.41632 1.89897 0.0135498 0.0146351 0.0155067 0.0210234 0.195613 0.312054 0.358774 0.442978 0.375087 0.390273 -3.46692 0.39933 0.376192 -3.46692 0.389354 0.395258 0.377737 0.383923 0.386209 0.424115 0.38298 0.38307 0.4213 0.352392 0.28643 0.167878 0.00907326 -0.00037384 -0.00105858 -0.00292683 -0.00498199 -0.00797272 -0.00630188 -3.46692 -3.46692 -3.46692 -3.46692 -1.56452 -1.56475 -1.56498 -1.56376 -1.56348 -1.56297 -1.56168 -1.56186 -1.56109 -0.813135 -0.118319 -0.1654 -0.052927 -0.0116882 -0.0119991 -0.0114822 -0.00936127 -0.00876236 -0.00988579 -0.00486183 -0.0030632 0.00021553 7.62939e-005 0.000816345 0.00201416 0.000934601 0.00385475 0.0054245 0.00665665 0.00763321 0.00863075 0.00740051 0.00719261 0.00628853 -0.0477676 -0.317268 -0.184188 -0.0198027 0.00857449 0.151076 0.289853 0.327755 0.336436 0.423937 0.428694 0.377686 0.338708 0.335733 0.333173 0.353601 0.42197 0.438629 0.434891 0.41749 0.339465 0.331057 0.364016 0.314842 0.357639 0.427248 0.42943 0.353233 0.309278 0.337476 0.33598 0.345933 0.432507 0.447137 0.433908 0.405277 0.325651 0.363268 0.32341 0.367057 0.378991 0.43223 0.391221 0.338116 0.387896 0.301999 0.182255 0.0216497 -0.0132446 -0.113168 -0.31773 -0.215071 0.0088768 0.0204735 0.01968 0.0176239 0.0164394 0.0184631 0.0190277 0.024292 0.0168114 0.0129929 0.0134754 0.0123482 0.0117178 0.0105095 0.012907 0.012289 0.00849915 0.00855255 0.00869751 0.00704002 0.0056839 0.00270462 0.00410652 0.00374985 -0.835042 -1.54248 -1.54166 -1.54189 -1.5404 -1.54121 -1.54033 -1.54063 -1.54109 -1.54044 -3.46692 -3.46692 -3.46692 0.00722313 -3.46692 0.00475311 0.00410843 -3.46692 0.00225067 0.000629425 -3.46692 0.00849438 0.157736 0.286602 0.345201 0.388464 0.411587 0.413824 0.390236 0.425754 0.403543 0.359598 0.356757 0.366472 0.352266 0.409912 0.377796 0.393261 0.382452 0.398837 0.382105 0.344145 0.32405 0.204669 0.0216546 0.0123768 0.0100784 -3.46692 1.88906 0.0100594 0.0139809 -3.46692 0.0159969 0.0154209 0.0138817 0.00872612 -0.878465 -1.52395 -1.52398 -1.52495 -1.52735 -1.52771 -1.52896 -1.52932 -1.52816 -1.53073 -3.46692 -3.46692 -3.46692 -3.46692 -3.46692 -3.46692 0.0380802
-3.46692 -3.46692 -3.46692 -3.46692 -3.46692 -3.46692 -3.46692 -3.46692 0.490294 0.498041 0.504608 0.50004 0.435162 0.357134 0.159076 0.0998478 -3.46692 -3.46692 -3.46692 -3.46692 -3.46692 -3.46692 -3.46692 -3.46692 -3.46692 -1.5005 -1.4982 -1.49805 -1.49399 -1.49356 -1.49369 -1.49392 -1.49408 -1.49447 -1.49576 -0.715181 0.0538044 -0.0921135 0.0154762 0.0640736 0.0633411 1.9789 1.54095 1.61933 1.68627 0.0614052 0.0596924 0.730481 0.572688 0.255697 0.3489 0.428349 0.429202 0.425527 0.457193 0.457099 0.454191 0.470659 0.442097 0.390953 0.474427 0.467381 0.414158 0.413033 0.410815 0.408855 0.40048 0.408474 0.292042 0.119414 0.0353088 0.0279293 0.0278206 0.0272121 0.0253716 -3.46692 -3.46692 -3.46692 -3.46692 -3.46692 -3.46692 -1.55047 -1.55129 -1.54743 -1.54453 -1.5443 -1.54316 -1.54073 -1.5404 -1.54009 -1.53977 -0.74776 -0.0552495 0.0202789 0.0179825 0.0150604 0.0181351 0.0166264 2.24601 1.23051 1.95664 0.0175457 0.0173454 0.0212994 0.078846 0.243648 0.334072 0.449732 0.434822 0.470588 0.4051 0.348622 0.393804 0.412771 0.415859 0.382568 0.425907 0.431128 0.376797 0.364907 0.426359 0.425667 0.431252 0.345366 0.301888 0.140943 0.0117273 -3.46692 -0.00281334 -3.46692 -0.000453949 -0.0035305 -0.00601006 -3.46692 -3.46692 -3.46692 -1.56389 -1.56249 -1.56236 -1.56243 -1.56336 -1.56245 -1.56175 -1.56193 -1.56163 -1.56244 -0.828587 -0.0982151 -0.165173 -0.0528431 -0.00868607 -0.00943565 -0.0095768 -0.00720406 -0.00586891 -0.00564957 -0.00238419 -0.00185013 0.000188828 -0.000965118 0.000782013 0.0031929 0.00343323 0.00435066 0.00453186 0.00555801 0.00420189 0.0081501 0.00759506 0.00688744 0.000864029 -0.162469 -0.334843 -0.182898 -0.0218887 0.0037756 0.165583 0.284023 0.400469 0.322224 0.337854 0.339989 0.333028 0.32582 0.301519 0.330485 0.304312 0.366611 0.431 0.430759 0.365983 0.308344 0.343313 0.352406 0.324928 0.313596 0.367256 0.366865 0.324304 0.328529 0.362103 0.335041 0.312151 0.361581 0.433147 0.368406 0.355149 0.319748 0.364187 0.398455 0.392224 0.324608 0.33232 0.340736 0.39761 0.400829 0.296069 0.113585 0.0202325 -0.0112858 -0.107814 -0.261963 -0.248873 -0.0252857 0.0204868 0.0206509 0.0181961 0.0167923 0.0184422 0.0192432 0.0180893 -3.46692 0.0163679 0.0163383 0.015316 0.0125332 0.0125141 0.00904465 0.00769234 0.00787926 0.00762367 0.0138931 0.0075798 0.00691795 0.00710869 0.00528145 0.0025692 -0.837372 -1.54069 -1.54047 -1.54048 -1.53996 -1.53925 -1.53978 -1.54002 -1.54007 -1.54085 -3.46692 -3.46692 -3.46692 0.00614643 0.00594902 0.00219536 -3.46692 0.00732994 0.00593567 0.0041275 0.00111961 0.00821877 0.100702 0.201303 0.342468 0.371313 0.403163 0.43325 0.422291 0.437497 0.401009 0.392822 0.350013 0.358191 0.377859 0.429646 0.419102 0.395781 0.400615 0.416088 0.374313 0.334135 0.267365 0.108483 0.645668 0.011137 0.0136948 2.18366 1.62635 2.09437 1.54842 -3.46692 0.0172977 0.0166683 0.0132837 0.0058136 -0.844563 -1.52229 -1.52101 -1.5218 -1.5238 -1.52323 -1.5226 -1.52372 -1.52504 -1.52574 -3.46692 -3.46692 -3.46692 -3.46692 -3.46692 -3.46692 0.0351601
-3.46692 -3.46692 -3.46692 -3.46692 -3.46692 -3.46692 -3.46692 -3.46692 0.502194 0.512085 0.51413 0.483789 0.418114 0.231301 0.157177 0.0951996 0.0910435 -3.46692 -3.46692 -3.46692 -3.46692 -3.46692 -3.46692 -3.46692 -3.46692 -1.49477 -1.49446 -1.49501 -1.49227 -1.4914 -1.49116 -1.49317 -1.49359 -1.49341 -1.49369 -0.727264 0.0604887 -0.0892143 0.0299439 0.0657158 0.0636864 0.0624962 2.42433 1.57569 0.0606956 0.0601463 0.0591393 0.851407 1.03543 0.167369 0.289422 0.434472 0.457098 0.433125 0.458566 0.465381 0.466849 0.463042 0.423988 0.391791 0.42067 0.448236 0.451063 0.454441 0.425012 0.408607 0.431612 0.365559 0.241043 0.0467587 0.0313158 0.0305901 0.0301037 0.0270519 0.026392 -3.46692 -3.46692 -3.46692 -3.46692 -3.46692 -3.46692 -1.54751 -1.5477 -1.5438 -1.54105 -1.54093 -1.53924 -1.5388 -1.53837 -1.53736 -1.53737 -0.745724 -0.0548414 0.022068 0.0213394 0.0203323 0.0189762 0.0170746 2.49378 1.78802 2.02211 1.96497 0.0184879 0.658403 0.101845 0.179136 0.295574 0.420127 0.446396 0.403666 0.34688 0.425988 0.390714 0.401397 0.363136 0.37393 0.429453 0.398242 0.427919 0.361507 0.402874 0.395762 0.403885 0.330544 0.212752 0.036252 -3.46692 0.000703812 -0.000898361 0.00290489 0.00538445 -0.000165939 -0.00350761 -3.46692 -3.46692 -3.46692 -1.56548 -1.56185 -1.55916 -1.55812 -1.5579 -1.55695 -1.55696 -1.55732 -1.55676 -1.56003 -0.814002 -0.0759182 -0.165661 -0.0543747 -0.00928688 -0.00771713 -0.00827408 -0.00652313 -0.00499535 -0.00318146 -0.00292142 -0.00129128 0.000738144 -0.000127792 0.0043354 0.00543785 0.00517082 0.0058651 0.00746536 0.0058403 0.00601387 0.00720596 -0.0422525 -0.147637 -0.124456 -0.308737 -0.33377 -0.183936 -0.0384471 0.00292397 0.0684808 0.271079 0.407369 0.405732 0.3178 0.361824 0.423883 0.426462 0.3582 0.34208 0.298717 0.298347 0.357573 0.363724 0.310898 0.413557 0.431936 0.39079 0.42929 0.394341 0.320744 0.322885 0.419586 0.433659 0.420756 0.438396 0.435689 0.34572 0.364784 0.35031 0.314497 0.30949 0.365838 0.382377 0.445202 0.45162 0.422962 0.326795 0.413694 0.390987 0.300353 0.128387 0.0215632 -0.0233898 -0.153819 -0.319281 -0.280154 -0.123363 0.0207033 0.0223331 0.0197372 0.0197735 0.0187988 0.0185242 0.0177174 0.0174999 0.0173721 0.0157337 0.0171337 0.0178916 0.0149069 0.00900841 0.00841904 0.00915146 0.00952911 0.010004 0.00916862 0.00912666 0.00750351 0.00742912 0.00523376 -0.788158 -1.53784 -1.53879 -1.53748 -1.53753 -1.53633 -1.53654 -1.53678 -1.5364 -1.53836 -3.46692 -3.46692 -3.46692 0.00335121 0.00467682 0.00464725 0.00779533 0.00670242 0.00593758 0.00562477 0.00180817 0.0015564 0.0100594 0.202354 0.28883 0.377591 0.434292 0.419901 0.421896 0.41407 0.432734 0.393752 0.338614 0.329882 0.403342 0.426184 0.448513 0.397854 0.437668 0.475632 0.433187 0.882457 0.607814 0.0110669 0.0066185 0.00878906 1.31824 -3.46692 0.012455 2.09894 0.0136242 0.0145054 0.0153713 0.0167065 0.0145617 0.0130444 -0.826258 -1.52005 -1.52058 -1.52218 -1.52137 -1.52176 -1.5208 -1.52126 -1.52221 -1.52279 -3.46692 -3.46692 -3.46692 -3.46692 -3.46692 -3.46692 0.0333157
-3.46692 -3.46692 -3.46692 -3.46692 -3.46692 -3.46692 -3.46692 -3.46692 0.517556 0.498752 0.504124 0.453718 0.345567 0.189768 0.103312 0.0931149 0.0949974 -3.46692 -3.46692 -3.46692 -3.46692 -3.46692 -3.46692 -3.46692 -3.46692 -1.49255 -1.49397 -1.49378 -1.49411 -1.49416 -1.49386 -1.4936 -1.49362 -1.49132 -1.49165 -0.725551 0.0634289 -0.0894337 0.0407391 0.0682602 0.0640678 0.065239 0.0654202 0.0638256 0.0624943 0.0610313 0.0623283 0.0629253 0.955797 0.964462 0.197756 0.352038 0.444402 0.417616 0.486988 0.452953 0.459735 0.459719 0.393518 0.39432 0.403229 0.469591 0.427115 0.427671 0.424024 0.403798 0.400631 0.286873 0.131905 0.0462926 0.0311775 0.0306759 0.0310135 0.0295868 0.0294437 -3.46692 -3.46692 -3.46692 -3.46692 -3.46692 -3.46692 -1.54471 -1.54319 -1.54091 -1.53899 -1.53732 -1.5367 -1.53641 -1.53587 -1.53425 -1.535 -0.747424 -0.0571594 0.0196095 0.0210629 0.0179691 0.0173798 0.0175476 0.0187912 2.01307 1.81113 1.32853 2.27787 0.0147057 0.0178194 0.633209 0.843646 0.367788 0.468468 0.365175 0.440795 0.45895 0.396034 0.427559 0.341883 0.35187 0.418568 0.417142 0.377154 0.423367 0.360874 0.42625 0.385058 0.262949 0.149029 0.0171261 0.00525093 0.0022583 0.000425339 0.00349998 0.00563622 -0.000640869 -0.00380898 -3.46692 -3.46692 -3.46692 -1.5606 -1.55912 -1.55692 -1.55697 -1.55624 -1.55691 -1.55573 -1.55512 -1.55482 -1.55547 -0.903435 -0.0611238 -0.163709 -0.0538317 -0.00561142 -0.00351524 -0.0046196 -0.00575256 -0.00455475 -0.00603167 -0.00201511 -0.00211334 -0.000770569 0.000598907 0.001894 0.00295639 0.00445366 0.00556755 0.00423813 0.0045948 0.00551224 0.00255966 -0.112094 -0.279821 -0.246014 -0.316969 -0.33226 -0.233273 -0.0400944 0.00297737 0.0558039 0.215082 0.334585 0.338948 0.354681 0.432251 0.435573 0.409733 0.342598 0.355265 0.415169 0.366285 0.301989 0.307434 0.358839 0.430084 0.430296 0.43281 0.435392 0.401423 0.331333 0.334371 0.413336 0.437286 0.433879 0.43676 0.441011 0.410587 0.312835 0.323616 0.40861 0.43758 0.417551 0.343005 0.415634 0.449175 0.449963 0.391713 0.381999 0.361553 0.293413 0.0933475 0.00894737 -0.0239544 -0.143993 -0.318182 -0.322832 -0.12086 0.021719 0.0206776 0.0191975 0.0191364 0.018898 0.0188618 0.0183468 0.0164261 0.0149994 0.0142441 0.0148163 0.0157299 0.0121078 0.00901222 0.00860977 0.00916672 0.0114708 0.0152912 0.0131531 0.013979 0.0127773 0.00947571 0.0086937 -0.783965 -1.535 -1.53527 -1.5339 -1.53436 -1.53395 -1.53413 -1.53391 -1.5342 -1.53513 -3.46692 -3.46692 -3.46692 0.00592899 0.00696182 0.0021286 0.00495052 0.00765228 0.00775528 0.00667381 0.0063858 0.00425243 0.00310993 0.0937624 0.202648 0.314011 0.412194 0.430134 0.421263 0.390446 0.401428 0.333555 0.396738 0.36091 0.366496 0.386121 0.376423 0.385655 0.415875 0.747346 0.958989 0.547364 0.714251 0.0121107 0.00784302 2.63113 1.52476 1.26067 2.18642 3.19999 0.0158243 -3.46692 0.0158615 0.01647 0.0162754 0.0144577 -0.845047 -1.51789 -1.51881 -1.5192 -1.5181 -1.51867 -1.51795 -1.51792 -1.51962 -1.52177 -3.46692 -3.46692 -3.46692 -3.46692 -3.46692 -3.46692 0.0304623
-3.46692 -3.46692 -3.46692 -3.46692 -3.46692 -3.46692 -3.46692 -3.46692 0.517216 0.524699 0.515059 0.399832 0.284267 0.114655 0.0977364 0.0917797 0.0937595 -3.46692 -3.46692 -3.46692 -3.46692 -3.46692 -3.46692 -3.46692 -3.46692 -1.50142 -1.49289 -1.48941 -1.49195 -1.49104 -1.49199 -1.49322 -1.49087 -1.49052 -1.48966 -0.747861 0.0636749 -0.0866661 0.0215537 0.0691967 0.0659142 0.0662155 0.0668201 0.0660877 1.87053 1.18081 1.37388 0.064209 0.0649433 0.0685959 0.16209 0.304225 0.393977 0.403297 0.463515 0.466732 0.45719 0.395078 0.420944 0.466383 0.39521 0.435383 0.477801 0.448141 0.415043 0.397714 0.281824 0.242708 0.05264 0.0370407 0.0350323 0.0333538 0.033783 0.0315723 0.032589 -3.46692 -3.46692 -3.46692 -3.46692 -3.46692 -3.46692 -1.54243 -1.54116 -1.5399 -1.53842 -1.53703 -1.53693 -1.5355 -1.53452 -1.53191 -1.53394 -0.710555 -0.0359001 0.0214691 0.0200062 0.0207272 0.0194225 0.0231075 0.0215397 1.56489 2.20097 2.03995 1.33188 0.0189679 0.018589 0.947437 0.6137 0.61352 0.394851 0.380026 0.487153 0.466121 0.447468 0.366298 0.402128 0.399662 0.359093 0.413786 0.427201 0.381785 0.356537 0.38088 0.288316 0.175288 0.0360761 0.00972939 0.00675201 0.00365257 0.00105667 0.00364304 0.00639534 0.000284195 -0.00170898 -3.46692 -3.46692 -3.46692 -1.559 -1.5575 -1.55409 -1.55352 -1.55272 -1.55306 -1.55245 -1.55155 -1.55247 -1.55441 -0.76532 -0.0426502 -0.162342 -0.0542278 -0.00568581 -0.00274086 -0.000963211 -0.00184822 -0.00414085 -0.00117874 -0.000358582 -0.000886917 0.00211143 0.00346756 0.00302315 0.00344467 0.00494576 0.00450897 0.00556755 0.00657654 0.00566673 0.000745773 -0.12115 -0.313179 -0.211222 -3.46692 -0.289415 -0.262963 -0.0816593 -0.00045077 0.0114069 0.193377 0.326213 0.338879 0.422144 0.432822 0.431268 0.39813 0.329596 0.408716 0.423771 0.386891 0.35506 0.302837 0.385934 0.428001 0.433226 0.433048 0.4279 0.3742 0.343457 0.343726 0.400305 0.430103 0.437885 0.438564 0.445208 0.434815 0.31646 0.360028 0.422388 0.434204 0.385179 0.362288 0.376949 0.449413 0.451962 0.44105 0.361439 0.328072 0.239862 0.0278505 0.00440216 -0.0711575 -0.207949 -0.221132 0.000389099 -0.137019 0.0212526 0.0215778 0.0221977 0.021595 0.0210361 0.0212727 0.0188046 0.0191174 0.0186901 0.016571 0.0178852 0.0169611 0.0182756 0.0124207 0.00858498 0.00836563 0.010006 0.0108128 0.0131397 0.0114174 0.0105991 0.0137558 0.0119934 -0.829625 -1.53345 -1.53169 -1.53204 -1.53049 -1.53106 -1.53182 -1.5309 -1.5319 -1.5326 -3.46692 -3.46692 -3.46692 0.00751591 0.00629997 -3.46692 -3.46692 0.00643539 0.00644493 -3.46692 0.00551033 0.00411034 0.00263786 0.00811539 0.157155 0.249748 0.34401 0.368612 0.353678 0.340717 0.331131 0.357571 0.420919 0.405032 0.364057 0.342054 0.36381 0.358699 0.919131 1.08542 0.481282 0.89893 0.0173674 0.0060463 0.00872612 2.64935 0.0105457 0.0120907 3.28152 0.0149269 0.0163126 -3.46692 0.018137 0.0191116 0.0207291 0.0149212 -0.822929 -1.51463 -1.51441 -1.51417 -1.51523 -1.51601 -1.51585 -1.5167 -1.51701 -1.51826 -3.46692 -3.46692 -3.46692 -3.46692 -3.46692 -3.46692 0.0333061
-3.46692 -3.46692 -3.46692 -3.46692 -3.46692 -3.46692 -3.46692 -3.46692 0.521476 0.485296 0.438058 0.321297 0.180187 0.106291 0.0970764 0.0950718 0.0973606 -3.46692 -3.46692 -3.46692 -3.46692 -3.46692 -3.46692 -3.46692 -3.46692 -3.46692 -1.48961 -1.48931 -1.48959 -1.48807 -1.48822 -1.49053 -1.48923 -1.48827 -1.48609 -0.731877 0.0710945 -0.0862637 0.0403629 0.0695 0.068121 0.0674973 0.0671253 0.067461 1.6503 1.79481 0.0663948 0.065485 1.4267 0.0651722 0.543434 0.767209 0.759088 0.366236 0.451672 0.457335 0.466743 0.416201 0.479681 0.476472 0.46546 0.403031 0.411353 0.463665 0.410328 0.317791 0.247395 0.104255 0.0409145 0.0361137 0.0359306 0.0355034 0.0346718 0.0327339 0.0320415 -3.46692 -3.46692 -3.46692 -3.46692 -3.46692 -3.46692 -1.53963 -1.5379 -1.53366 -1.53439 -1.53415 -1.53423 -1.53165 -1.53 -1.52934 -1.53092 -0.747449 -0.0578658 0.0233574 0.0245914 0.0239582 0.0245419 0.0250626 0.0235481 0.0210762 2.22149 1.21084 1.28766 1.39664 0.0213795 0.793525 0.0641041 0.904849 0.315057 0.350917 0.458506 0.437624 0.371168 0.392015 0.481915 0.424958 0.438273 0.369884 0.402751 0.402314 0.38813 0.293051 0.178389 0.0709648 0.0123978 0.00907707 -3.46692 0.00551414 0.00341225 0.00328636 0.0052948 0.0014782 -0.00157928 -3.46692 -3.46692 -3.46692 -1.55487 -1.55365 -1.55208 -1.55094 -1.55072 -1.54829 -1.54993 -1.55026 -1.54979 -1.55083 -0.759955 -0.0377655 -0.162173 -0.0547733 -0.00667953 -0.00372314 -0.00291824 -0.000362396 -0.00079155 -9.72748e-005 0.000999451 -0.000432014 0.0028019 0.00377846 0.00445557 0.00668526 0.00786018 0.00772667 0.00747871 0.00692368 0.00684357 0.00571632 -0.135098 -3.46692 -0.0554976 -0.0445118 -0.226013 -0.313867 -0.129173 -0.0160262 0.0089941 0.141675 0.27428 0.349919 0.428335 0.432665 0.422678 0.400188 0.327535 0.360308 0.417707 0.416836 0.374562 0.307861 0.412962 0.427479 0.429787 0.433863 0.430679 0.401131 0.317636 0.32869 0.416232 0.42826 0.432848 0.439114 0.442452 0.42028 0.31381 0.402495 0.427372 0.425224 0.379416 0.361794 0.383857 0.450182 0.445831 0.443958 0.379764 0.292481 0.1595 0.0189438 -0.0043087 -0.102283 -0.290809 -0.248089 -0.0350615 0.0206013 0.0202637 0.0191689 0.0203457 0.0203743 0.0218678 0.0216656 0.0207043 0.0214767 0.0202084 0.0165844 0.0172844 0.014979 0.0150719 0.0109615 0.0103092 0.0103931 0.00963593 0.00753403 0.0091095 0.00747108 0.0077858 0.00937271 0.00924492 -0.846582 -1.53041 -1.52814 -1.52721 -1.52798 -1.52751 -1.52844 -1.52929 -1.53012 -1.53071 -3.46692 -3.46692 -3.46692 0.00755819 0.00637627 0.00482178 0.00618744 0.0102215 -3.46692 0.00788784 0.00662041 0.00733948 0.00211143 0.00530243 0.0560603 0.160529 0.286597 0.342251 0.429428 0.342898 0.37808 0.414265 0.417901 0.486948 0.507286 0.365766 0.364284 0.910522 0.786782 0.738975 0.821269 0.376618 0.00770378 0.00676028 0.0144329 1.7446 0.0112581 2.25804 3.30013 0.0162201 0.0180664 0.0212746 -3.46692 0.0206013 0.0231552 0.0222712 -0.84545 -1.51141 -1.50965 -1.5116 -1.51239 -1.51205 -1.51301 -1.51273 -1.51365 -1.51602 -3.46692 -3.46692 -3.46692 -3.46692 -3.46692 -3.46692 0.0371876
-3.46692 -3.46692 -3.46692 -3.46692 -3.46692 -3.46692 -3.46692 -3.46692 0.526504 0.435574 0.322086 0.225013 0.111451 0.0997639 0.10243 0.0996037 0.0983772 -3.46692 -3.46692 -3.46692 -3.46692 -3.46692 -3.46692 -3.46692 -3.46692 -1.48959 -1.48683 -1.4852 -1.48385 -1.48424 -1.48559 -1.48446 -1.48304 -1.48234 -1.48116 -0.730502 0.0776768 -0.0852489 0.0227022 0.0754585 0.0721016 0.0706978 0.0704861 0.0717106 2.44326 1.27418 1.91351 0.0675411 1.40717 0.0671597 0.0700321 0.959557 0.657858 0.884118 0.363964 0.466503 0.402788 0.474168 0.480742 0.484013 0.488141 0.448526 0.406796 0.41824 0.322929 0.277536 0.127419 0.0462265 0.0419827 0.0426865 0.0403023 0.0395565 0.0386086 0.0376682 0.0347462 -3.46692 -3.46692 -3.46692 -3.46692 -3.46692 -3.46692 -1.53662 -1.53538 -1.5333 -1.53251 -1.53151 -1.53023 -1.52889 -1.52722 -1.52621 -1.52553 -0.748978 -0.0962563 0.0279446 0.0290661 0.0284348 0.0266724 0.026125 0.0248718 0.0225353 0.0235233 2.26894 0.023695 0.0231285 0.0230036 0.0230484 0.939071 0.0642765 0.628411 1.02004 0.448564 0.463935 0.371275 -3.46692 0.411568 0.373617 0.402122 0.380405 0.39371 0.760466 0.332737 0.225112 0.0961075 0.0215497 0.0129471 0.0126677 0.0118322 0.00944901 0.00852776 0.00646114 0.00448036 0.00290108 -0.00237274 -3.46692 -3.46692 -3.46692 -1.55216 -1.55 -1.54757 -1.5479 -1.54776 -1.54763 -1.54788 -1.54842 -1.54861 -1.54842 -0.719402 -0.0320721 -0.161578 -0.053697 -0.00379181 -0.000549316 0.000638962 0.00173569 0.00210381 0.00340652 0.00340652 0.000937462 0.00515938 0.00461006 0.00495338 0.00618553 0.00585938 0.00662041 0.0059948 0.00409698 0.00437737 0.00180244 0.00372887 0.00377464 0.00466919 0.00131416 -0.143129 -0.328278 -0.17564 -0.0366611 0.00555992 0.0914507 0.226232 0.345903 0.429396 0.429461 0.430186 0.360373 0.332682 0.372608 0.42527 0.425756 0.41456 0.348916 0.41441 0.42095 0.431999 0.431749 0.404617 0.384132 0.318719 0.360991 0.370791 0.424813 0.433655 0.439475 0.443849 0.414171 0.312378 0.410162 0.432096 0.429457 0.418896 0.341085 0.388399 0.441179 0.444633 0.442276 0.376478 0.289414 0.0965257 0.0181379 -0.019392 -0.156013 -0.309748 -0.236465 0.00946999 0.019453 0.0203781 0.0197544 0.0196896 0.020916 0.0221272 0.0218811 0.020443 0.0199242 0.0208893 0.0174675 0.0165901 0.0153418 0.0139732 0.013237 0.00898361 0.00865364 0.00829697 0.0076561 0.00800896 0.00741768 0.00756836 0.0107937 0.00982666 -0.768373 -1.52614 -1.52691 -1.52655 -1.52622 -1.52612 -1.52704 -1.52774 -1.52763 -1.52842 -3.46692 -3.46692 -3.46692 0.0117779 0.0113325 0.00489998 0.00847816 0.00944328 0.0114574 0.0104847 0.0122948 0.00960159 0.00946045 0.00662804 0.00313886 0.0861874 0.154483 0.298428 0.630722 0.911461 0.430564 0.412193 0.445895 0.474453 0.424465 0.456574 0.66987 0.883462 0.569078 0.648625 0.321894 -3.46692 0.00481987 0.00751623 0.0113573 0.0112038 0.0128746 1.14789 0.0184689 -3.46692 0.0208349 0.0211143 -3.46692 0.0227394 0.0251923 0.0229645 -0.824476 -1.50801 -1.50732 -1.50762 -1.50891 -1.50862 -1.51003 -1.51125 -1.51244 -1.51303 -3.46692 -3.46692 -3.46692 -3.46692 -3.46692 -3.46692 0.0379515
-3.46692 -3.46692 -3.46692 -3.46692 -3.46692 -3.46692 -3.46692 -3.46692 0.409725 0.328308 0.245961 0.115038 0.103256 0.103611 0.102058 0.102131 0.103149 -3.46692 -3.46692 -3.46692 -3.46692 -3.46692 -3.46692 -3.46692 -3.46692 -3.46692 -1.48452 -1.48269 -1.47982 -1.47956 -1.48187 -1.48192 -1.47986 -1.47915 -1.47957 -0.726776 0.0767784 -0.0844135 0.0249438 0.0778713 0.0747814 0.074358 0.0742855 0.0751514 0.074194 0.0737133 1.18358 2.02535 0.0698891 1.49255 0.0684166 0.899191 0.506531 0.650071 0.314475 0.401639 0.406387 0.419086 0.487189 0.477698 0.472961 0.404077 0.401326 0.352723 0.284988 0.158061 0.0474873 0.0451393 0.0466022 0.0443573 0.0419455 0.0405045 0.038847 0.0382614 0.0378151 -3.46692 -3.46692 -3.46692 -3.46692 -3.46692 -3.46692 -1.5336 -1.53238 -1.53174 -1.53045 -1.53004 -1.52892 -1.52838 -1.52638 -1.52378 -1.52238 -0.703033 -0.065702 0.0356083 0.0355988 0.0334473 0.0313339 0.0296707 0.0260963 0.0242176 0.024189 1.73178 0.0261478 1.63463 0.0241556 0.0253353 0.0238533 0.0328913 0.410887 0.692444 0.896712 0.921635 0.378149 0.41816 0.464326 0.429035 0.414902 0.3819 0.910039 0.819656 0.444308 0.170485 0.0381222 0.0136134 -3.46692 -3.46692 0.0137711 0.00940704 0.00897598 -3.46692 0.0059433 0.00291634 -0.00138855 -3.46692 -3.46692 -3.46692 -1.55052 -1.54754 -1.54532 -1.54404 -1.54388 -1.54405 -1.5432 -1.54386 -1.54441 -1.545 -0.767437 -0.0225601 -0.161847 -0.0508582 -0.00173187 0.00157166 0.00374794 0.00466919 0.00410652 0.00543785 0.0051384 0.00439167 0.00413895 0.00561523 0.00523949 0.00593185 0.00600052 0.00721931 0.00615501 0.00590324 0.0057354 0.00422096 0.00386429 0.00470543 0.00298119 0.00239563 -0.14699 -0.300093 -0.22256 -0.0837809 -0.00174904 0.0452151 0.211633 0.342906 0.421425 0.420674 0.412169 0.349138 0.337757 0.377352 0.42519 0.422977 0.410971 0.331036 0.377663 0.423786 0.428782 0.429085 0.361003 0.351786 0.428293 0.398726 0.328881 0.376637 0.428929 0.435057 0.441044 0.415857 0.313815 0.400449 0.430416 0.433323 0.411488 0.337223 0.391603 0.438461 0.397267 0.398543 0.369196 0.232047 0.0543075 0.0134039 -0.0716085 -0.175132 -0.31321 -0.171659 0.0142078 0.0194263 0.0200005 0.0218735 0.0229359 0.0233498 0.0238018 0.022171 0.0184021 0.0163002 0.0195236 0.0188522 0.0199547 0.0168076 0.0176086 0.0137424 0.0113926 0.00843811 0.00897217 0.00858879 0.0114574 0.0103512 0.00915146 0.0115852 0.00968742 -0.819843 -1.52533 -1.52463 -1.52345 -1.5233 -1.52299 -1.52332 -1.52283 -1.52369 -1.52483 -3.46692 -3.46692 -3.46692 0.0112762 -3.46692 0.012558 0.0104027 0.0129566 0.0127354 -3.46692 0.0116596 -3.46692 0.00845718 0.00548172 0.00208346 -0.0004673 0.0876532 0.214196 0.716669 0.829746 1.24508 0.791763 0.957118 0.899286 0.959061 0.543256 0.660139 0.313436 0.225235 0.0789828 0.00219345 0.00326729 0.00435638 0.00798162 0.0113335 0.0106335 2.34997 0.0169268 -3.46692 0.018692 0.0206051 0.0235958 0.0257149 -3.46692 0.0286179 0.0269365 -0.846394 -1.50749 -1.50783 -1.50723 -1.50819 -1.50817 -1.50866 -1.50911 -1.50925 -1.51124 -3.46692 -3.46692 -3.46692 -3.46692 -3.46692 -3.46692 0.0387897
-3.46692 -3.46692 -3.46692 -3.46692 -3.46692 -3.46692 -3.46692 -3.46692 -3.46692 0.198121 0.135309 0.107643 0.103382 0.104898 0.103676 0.101309 0.102131 -3.46692 -3.46692 -3.46692 -3.46692 -3.46692 -3.46692 -3.46692 -3.46692 -3.46692 -1.48068 -1.4794 -1.47932 -1.47877 -1.47886 -1.47822 -1.4757 -1.47643 -1.47528 -0.7272 0.0505276 -0.0836849 0.0249162 0.0797033 0.0781765 0.0769787 0.076622 0.0767155 0.0752811 1.76501 0.0743923 1.31271 0.0720844 0.0713139 0.0709896 0.0682812 0.0694218 0.708191 0.201166 0.566859 0.829991 0.379683 0.438517 0.483734 0.441309 0.397899 0.295878 0.276331 0.136865 0.0539265 0.0452347 0.0494881 0.0473499 0.0472221 0.0441065 0.0444469 0.041996 0.0401478 0.0386944 -3.46692 -3.46692 -3.46692 -3.46692 -3.46692 -3.46692 -1.5332 -1.53227 -1.52895 -1.52807 -1.52642 -1.52626 -1.52539 -1.52247 -1.52121 -1.52125 -0.701777 -0.0554663 0.0430431 0.0407791 0.0400295 0.0394154 0.0375099 0.0342045 0.0294952 0.0276604 0.0259247 0.0285034 0.0279503 1.24667 0.027778 0.0299797 0.0246258 0.0276852 0.477278 0.535492 0.29264 0.667145 0.384365 0.420935 0.491819 1.02262 0.337862 0.301843 0.195554 0.167337 0.0344283 0.0176748 0.0219288 0.0161858 0.0143967 -3.46692 0.0110645 0.00934601 0.00768471 0.00604057 0.00316429 -0.00213623 -3.46692 -3.46692 -3.46692 -1.55052 -1.54772 -1.54537 -1.54453 -1.5433 -1.54366 -1.54208 -1.54249 -1.54394 -1.54306 -0.776483 -0.0648232 -0.160647 -0.0409991 0.00113487 0.00323868 0.00448227 0.00689888 0.00709343 0.00584602 0.00494576 0.00517082 0.00365543 0.00385284 0.00475502 0.00415039 0.00422859 0.0047245 0.00413513 0.00517654 0.00438309 0.00427628 0.00449753 0.00279808 0.00271988 0.00205803 -0.0574608 -0.291547 -0.265679 -0.0900106 -0.00757027 0.0185118 0.105669 0.250826 0.330625 0.42294 0.431558 0.385632 0.334859 0.411983 0.427248 0.423176 0.362185 0.299204 0.368319 0.423214 0.426252 0.375075 0.344986 0.430687 0.430555 0.431417 0.430386 0.357933 0.355947 0.436534 0.438923 0.358431 0.305717 0.365093 0.433449 0.432772 0.422508 0.333536 0.39314 0.439476 0.425829 0.35295 0.289537 0.123246 0.0138321 0.00134087 -0.0938721 -0.252303 -3.46692 -0.200788 -0.144845 0.0139313 0.0184803 0.019455 0.0215721 0.0208683 0.0211716 0.0209618 0.018856 0.0182457 0.0183659 0.0171204 0.0171909 -3.46692 0.0149984 0.0177517 0.0155792 0.0147514 0.0139198 0.013792 0.0152378 0.0126896 0.0140915 0.0129604 0.0109177 -0.75016 -1.5245 -1.52336 -1.52412 -1.52103 -1.52117 -1.52086 -1.52188 -1.52265 -1.52496 -3.46692 -3.46692 -3.46692 0.01478 0.0155258 -3.46692 0.0153828 0.016201 0.0154285 0.0152359 0.0150356 0.0145359 0.0125847 0.00876045 0.00880432 0.00342878 0.0379105 0.128466 0.234535 0.326721 0.348062 0.370243 0.416193 0.48669 0.551459 0.923118 0.689085 0.24073 0.121167 0.00637627 0.000574112 -3.46692 1.41643 1.82575 0.0131674 0.0140791 0.0196409 0.0204525 0.0205441 0.0228119 -3.46692 0.0279922 0.030407 0.0318546 0.0345383 -3.46692 -0.802014 -1.5058 -1.50528 -1.50979 -1.50554 -1.50274 -1.50587 -1.50736 -1.50787 -1.51138 -3.46692 -3.46692 -3.46692 -3.46692 -3.46692 -3.46692 0.038702
-3.46692 -3.46692 -3.46692 -3.46692 -3.46692 -3.46692 -3.46692 -3.46692 -3.46692 0.120515 0.109526 0.107307 0.107536 0.108026 0.104584 0.101641 0.103201 -3.46692 -3.46692 -3.46692 -3.46692 -3.46692 -3.46692 -3.46692 -3.46692 -3.46692 -1.47886 -1.47756 -1.47587 -1.47563 -1.47418 -1.47529 -1.47378 -1.47269 -1.47183 -0.724676 0.0787811 -0.0794601 0.0251532 0.0858307 0.0828743 0.0821495 0.0795364 0.0788956 0.0777836 0.076746 2.3479 0.0740929 0.0727692 1.21697 1.49533 1.5185 0.0670624 0.0697937 0.506156 0.906234 0.501713 0.316235 0.364522 0.469418 0.340206 0.281338 0.149116 0.15481 0.0546837 0.0508518 0.0502949 0.0490551 0.0495186 0.0465355 0.0447693 0.0454645 0.0431423 0.0403671 0.0383606 -3.46692 -3.46692 -3.46692 -3.46692 -3.46692 -3.46692 -1.53521 -1.53228 -1.52821 -1.52838 -1.52612 -1.52508 -1.5231 -1.52273 -1.52151 -1.51999 -0.700756 -0.0526123 0.0494556 0.047617 0.0465736 0.0451851 0.0424042 0.0389404 0.0370502 0.0353832 0.0327721 0.0321941 0.0320854 0.0310001 0.971137 0.0296745 0.027113 0.0242805 0.0250816 0.0905151 0.68892 0.853705 0.896979 0.377031 0.923795 0.831692 0.757576 0.182942 0.0847333 0.0243874 -3.46692 0.0180664 0.0185957 0.0193882 0.0166035 0.016139 0.013567 0.0113544 0.00984383 0.00763321 0.00598145 -0.000497818 -3.46692 -3.46692 -3.46692 -1.54895 -1.54531 -1.54415 -1.54151 -1.54108 -1.54088 -1.54067 -1.54038 -1.54082 -1.54222 -0.764533 -0.0778923 -0.160162 -0.0466118 0.00535965 0.00702095 0.0069313 0.00873184 0.00817108 0.00852966 0.00923729 0.00740051 0.00693258 0.00775528 0.00699425 0.0062561 0.00572968 0.00590134 0.00621414 0.00409889 0.00370789 0.00346565 0.00235558 0.00025177 -0.0521183 -0.176672 -0.179131 -0.310234 -0.333761 -0.182207 -0.0376911 -0.00262833 0.0761933 0.218672 0.324338 0.374653 0.386845 0.343794 0.35019 0.424637 0.426447 0.400249 0.34181 0.355964 0.319847 0.409992 0.427004 0.361337 0.391981 0.409357 0.43087 0.433283 0.418072 0.360779 0.336556 0.439536 0.394388 0.344927 0.316425 0.351367 0.377712 0.433802 0.435419 0.375244 0.366483 0.377992 0.371702 0.315344 0.254725 0.06991 0.00849724 -0.0228958 -0.156684 -0.327476 -3.46692 -0.317492 -0.169478 -0.108327 0.0113564 0.0204258 0.0204639 0.0206814 0.0216408 0.0205879 0.0189972 0.019743 0.0199928 0.018631 0.0173569 0.0168633 0.0210241 0.0155392 0.0138969 0.0133705 0.0119915 0.00938988 0.00924492 0.00922585 0.0101624 0.0119305 0.0125275 -0.886901 -1.52983 -1.52637 -1.52461 -1.5243 -1.5227 -1.52538 -1.52665 -1.52597 -1.54126 -1.54526 -1.63821 -3.46692 0.0183048 0.0184879 0.0154533 0.0157776 -3.46692 0.016573 0.0162716 0.0160446 0.0140743 0.0131378 0.0100517 0.00885201 0.00695229 3.05176e-005 0.0022831 0.091643 0.208184 0.280066 0.349026 0.431306 0.857368 0.867235 0.262938 0.234268 0.113192 0.00281143 -3.46692 0.00505829 1.44079 1.87207 -3.46692 0.0164089 0.0194645 0.0189152 0.0218515 0.0245399 0.0264568 -3.46692 0.028532 0.0322018 0.0331573 0.037117 -1.26798 -0.878901 -1.50779 -1.50609 -1.5087 -1.50505 -1.50542 -1.50899 -1.51064 -1.5131 -1.53324 -1.58328 -3.46692 -3.46692 -3.46692 -3.46692 -3.46692 0.0397329
-3.46692 -3.46692 -3.46692 -3.46692 -3.46692 -3.46692 -3.46692 -3.46692 -3.46692 0.110516 0.110483 0.109793 0.106457 0.108801 0.107765 0.105751 0.104525 -3.46692 -3.46692 -3.46692 -3.46692 -3.46692 -3.46692 -3.46692 -3.46692 -1.50295 -1.47776 -1.47764 -1.47614 -1.47632 -1.472 -1.47456 -1.47342 -1.47396 -1.47421 -0.788823 -0.706018 -0.0741234 0.0245795 0.0855694 0.0867538 0.0854282 0.0820503 0.0807781 0.0816689 0.0809841 0.0796604 0.0767479 0.0746784 0.0737438 0.0715847 0.0720825 0.0695629 0.0684299 0.0684242 0.474345 0.714159 0.160609 0.459135 0.953963 0.178878 0.138982 0.160007 0.0551949 0.0541897 0.0541191 0.0539932 0.050621 0.0511093 0.0462914 0.0468807 0.0447508 0.0423126 0.0416794 0.0402679 -3.46692 -3.46692 -3.46692 -3.46692 -3.46692 -1.6319 -1.55677 -1.5351 -1.53214 -1.53024 -1.52765 -1.52636 -1.52478 -1.52556 -1.52571 -1.52572 -0.750098 -0.340638 0.053587 0.0493069 0.047163 0.0454178 0.0406857 0.0375404 0.0367584 0.0371876 0.0345135 0.0333824 0.0341949 0.0341892 0.0335579 0.0319532 0.0296268 0.0286331 0.0279827 0.0247822 0.0669079 0.394303 0.946709 0.632849 0.276041 0.572569 0.327016 0.0358257 0.0209351 0.0218868 0.0213308 0.02285 0.0215708 -3.46692 0.0182743 -3.46692 0.0151901 0.0145149 0.0116997 0.0097065 0.00218391 -0.00041008 -3.46692 -3.46692 -1.62122 -1.56269 -1.54667 -1.5441 -1.54402 -1.54029 -1.53978 -1.53979 -1.53974 -1.54138 -1.55642 -0.857667 -1.12449 -0.158586 -0.048317 0.00712395 0.00832367 0.00933456 0.0101204 0.0110111 0.0114136 0.00917816 0.00728226 0.0066274 0.00696182 0.00761223 0.00827026 0.0065918 0.00664902 0.00769806 0.00659752 0.00472641 0.00357819 0.00155258 0.00133133 -0.130841 -0.193235 -0.252832 -0.333361 -0.34112 -0.246864 -0.0826702 -0.00659943 0.000356674 0.155652 0.270772 0.305965 0.329766 0.346196 0.429293 0.407396 0.359762 0.343092 0.303675 0.297934 0.29542 0.369565 0.401324 0.359456 0.363894 0.395517 0.408049 0.430111 0.386663 0.366499 0.339778 0.425756 0.336686 0.308073 0.369847 0.314438 0.317553 0.371706 0.418295 0.414549 0.37289 0.328421 0.319998 0.286706 0.199286 0.0155036 0.00130081 -0.0792494 -0.236037 -0.287947 -3.46692 -0.269567 -0.298732 -0.178211 0.012888 0.0202312 0.0211964 0.0215569 0.0231514 0.0203457 0.0205574 0.0205956 0.0197372 0.0180988 0.0183735 0.0188618 0.0146866 0.0137539 0.0131817 0.0127811 0.0104599 0.0117607 0.0120029 0.0133915 0.0135212 0.0139637 -1.28268 -0.972279 -1.54767 -1.52851 -1.52512 -1.52477 -1.52417 -1.52209 -1.5238 -1.53914 -1.58422 -1.5959 -1.45463 -3.46692 0.0211468 0.0226765 -3.46692 0.018177 0.0172844 0.0178967 0.0185642 0.0180283 0.0179577 0.0152283 0.0143929 0.013504 0.012167 0.00926781 0.00178909 0.00179291 0.0927054 0.152222 0.274305 0.299896 0.303821 0.301268 0.178282 0.0787506 0.0011692 0.00375366 0.00654984 0.00877571 2.29776 0.0137024 0.0154381 0.0174408 0.0182486 0.0251179 0.0237223 0.027195 0.0285988 0.0308266 0.0324364 0.0357456 0.0376339 -3.46692 -1.23196 -0.760565 -1.52145 -1.50526 -1.5044 -1.50438 -1.5055 -1.50846 -1.50914 -1.53146 -1.58182 -1.5351 -3.46692 -3.46692 -3.46692 -3.46692 -3.46692 0.0429096
-3.46692 -3.46692 -3.46692 -3.46692 -3.46692 -3.46692 -3.46692 -3.46692 -3.46692 0.113672 0.112246 0.110619 0.108438 0.111593 0.111872 0.109386 0.108566 -3.46692 -3.46692 -3.46692 -3.46692 -3.46692 -3.46692 -3.46692 -1.58122 -1.53914 -1.49307 -1.4758 -1.47533 -1.47232 -1.47348 -1.47508 -1.47093 -1.47576 -1.47784 -0.698827 -1.17422 -0.521817 0.0258322 0.0906353 0.0902004 0.0887356 0.0872707 0.0841007 0.0844326 0.0828609 0.0813808 0.0793037 0.0788002 0.075964 1.88017 0.0746613 0.0722237 0.0707283 0.0695171 0.0679379 0.0664031 0.119729 0.131494 0.131433 0.140366 0.0627785 0.0580673 0.0572586 0.0551701 0.0547066 0.0536098 0.0542145 0.0541859 0.0497189 0.0469131 0.0469007 0.0430241 0.0443382 0.0429363 -3.46692 -3.46692 -3.46692 -3.46692 -3.46692 -1.59907 -1.59961 -1.55208 -1.53312 -1.52778 -1.52635 -1.52519 -1.5198 -1.52275 -1.5267 -1.56121 -0.721705 -0.749706 0.0552311 0.0504131 0.0496807 0.0478077 0.0440769 0.0424156 0.0406246 0.0396824 0.0368042 0.0352383 0.0340557 0.0342674 0.034441 0.888921 2.25698 0.0314751 0.0350666 0.0295773 0.0271797 0.0278797 0.0936689 0.11254 0.13471 0.12033 0.0259018 0.0261478 -3.46692 0.0235729 0.0234718 0.0241585 0.0238673 0.0237484 0.022831 0.0224705 0.0169735 0.0163116 0.0128155 0.0110264 0.00272179 -0.00037384 -3.46692 -3.46692 -1.55489 -1.61829 -1.56634 -1.54583 -1.54343 -1.54218 -1.54129 -1.53846 -1.53883 -1.54008 -1.57316 -0.811981 -1.02994 -0.148714 9.72748e-005 0.0101452 0.0112667 0.0130901 0.0136242 0.0134163 0.014183 0.0110035 0.00907135 0.00815678 0.00798607 0.00756836 0.00809288 0.00668907 0.00608253 0.00645065 0.00671387 0.00484085 0.00279808 0.00110817 0.000574112 -0.147788 -0.316984 -0.206514 -0.0996399 -0.188013 -0.336817 -0.174133 -0.0361462 -0.00245094 0.102899 0.22283 0.328557 0.323977 0.333739 0.340282 0.333655 0.336778 0.360332 0.416376 0.421274 0.376172 0.3439 0.364882 0.371185 0.376341 0.370718 0.425899 0.433178 0.398903 0.340783 0.343736 0.341536 0.335666 0.442097 0.438097 0.4328 0.359716 0.311533 0.326676 0.334044 0.31575 0.376522 0.326422 0.250078 0.0699387 0.0120907 -0.0136728 -0.115514 -0.294641 -0.228289 -0.0550276 -3.46692 -0.19987 -0.325769 0.0138083 0.0189667 0.0198803 0.019886 0.0199146 0.019619 0.0193901 0.0184422 0.0184956 0.0171833 0.0172787 0.0184288 0.013236 0.0127277 0.0123234 0.0116272 0.00973701 0.0107555 0.0133572 0.0142269 0.0138474 0.0143547 -0.849914 -0.764965 -1.6104 -1.54315 -1.52212 -1.51932 -1.51795 -1.5199 -1.53161 -1.54963 -1.58564 -1.5704 -3.46692 -3.46692 0.0206127 -3.46692 0.02071 0.0228157 0.0230083 0.0223808 0.020195 0.0207806 0.0206013 0.0199947 0.018404 0.0180607 0.0174999 0.0136719 0.00758553 -3.46692 0.00104237 0.0839434 0.164996 0.260925 0.209324 0.163529 0.0547091 -0.000366211 3.15708 0.00449085 0.00960732 0.0113544 0.0146427 2.68712 3.12681 0.0203686 0.023489 0.0271378 0.0312252 0.0292072 0.0315857 0.033392 -3.46692 0.0366697 0.0399265 0.042244 -1.10466 -0.659928 -1.54651 -1.52035 -1.50036 -1.49991 -1.50019 -1.50633 -1.51896 -1.57087 -1.61211 -3.46692 -3.46692 -3.46692 -3.46692 -3.46692 -3.46692 0.0432224
-3.46692 -3.46692 -3.46692 -3.46692 -3.46692 -3.46692 -3.46692 -3.46692 -3.46692 0.119278 0.118541 0.112991 0.112879 0.113039 0.115797 0.11297 0.111929 -3.46692 -3.46692 -3.46692 -3.46692 -3.46692 -3.46692 -3.46692 -3.46692 -3.46692 -1.55502 -1.49151 -1.47314 -1.46833 -1.47026 -1.47279 -1.46845 -1.47568 -1.49804 -0.62618 -1.06158 0.00874805 0.00854619 0.0961819 0.0939617 0.0930042 0.0924549 0.0910721 0.0899734 0.0863819 0.0847702 0.0830059 0.0833683 0.082592 0.0772686 2.08333 0.0774765 0.0747528 0.0731888 0.0714664 0.0684233 0.0695333 0.066412 0.0741873 0.0639534 0.0635834 0.0628223 0.0628662 0.0627079 0.0596943 0.0581608 0.057539 0.0571213 0.0554104 0.050703 0.0476284 0.0504169 0.0493965 0.0472736 -3.46692 -3.46692 -3.46692 -3.46692 -3.46692 -3.46692 -1.61723 -1.60318 -1.54769 -1.52907 -1.52456 -1.52213 -1.51783 -1.52168 -1.5512 -1.58101 -0.591636 -0.558046 0.0561256 0.0546703 0.0534554 0.0491543 0.0470905 0.0457363 0.0458164 0.0456581 0.0431633 0.0421505 0.0411949 2.59738 1.99731 0.0373421 1.36409 0.0360184 0.0343704 0.0337811 0.0291824 0.0246506 0.0246277 0.0269299 0.0292282 0.0306177 0.0283146 0.0284138 0.027051 0.0270081 -3.46692 0.0265522 -3.46692 0.0231743 0.0229778 0.0229416 0.0177765 0.0154057 0.0132694 0.0120926 0.00514221 0.00375175 -3.46692 -3.46692 -3.46692 -3.46692 -1.61652 -1.55995 -1.53627 -1.53985 -1.54021 -1.53527 -1.5363 -1.56152 -1.62855 -0.784392 -0.829539 -0.155211 -0.0441844 0.0124741 0.0147495 0.0159817 0.0163422 0.0160465 0.0163841 0.0139256 0.0120888 0.0121155 0.0110474 0.00938797 0.00933456 0.00995827 0.00798416 0.00675583 0.00589752 0.00364113 0.00117493 0.000190735 -0.00191307 -0.126019 -0.0946341 -0.0127557 -0.00640106 -0.0247612 -0.281888 -0.270088 -0.0802612 -0.00645065 0.0737877 0.10099 0.290119 0.356522 0.430464 0.391306 0.324399 0.356902 0.365248 0.425213 0.425344 0.423868 0.375235 0.344508 0.31311 0.301653 0.324918 0.396088 0.400318 0.326349 0.330385 0.327752 0.306751 0.376583 0.432174 0.447815 0.44293 0.373881 0.370445 0.354626 0.38604 0.426014 0.377948 0.283258 0.148976 0.0878029 -0.00331497 -0.0898943 -0.253969 -0.306507 -0.161016 0.00988483 0.00187874 -0.0426617 -0.0615063 0.0143375 0.0183277 0.0197525 0.0198326 0.0197906 0.0201702 0.0201206 0.0196266 0.019371 0.0190678 0.0190067 0.0193844 0.0159035 0.015852 0.0147152 0.0134335 0.0127296 0.0150757 0.0166283 0.0168324 0.0182838 0.0178146 -0.933491 -0.610206 -1.60954 -1.58786 -1.53057 -1.5178 -1.51665 -1.52291 -1.54147 -1.59306 -1.57578 -3.46692 -3.46692 -3.46692 0.0254726 0.024415 0.023283 -3.46692 0.0227489 0.0216713 0.0207863 0.0202122 0.0205364 0.0198345 0.0204239 0.0197449 0.0177822 0.0184155 0.016757 0.00818825 4.57764e-005 -0.000696182 0.0446482 0.110052 0.105555 0.0558338 -9.53674e-006 0.00568199 2.11155 0.0155811 0.017519 0.0193672 2.04766 1.99352 0.0234547 0.0246887 0.025856 0.0291557 0.0323315 0.0323687 0.0353909 0.036974 0.0403366 -3.46692 0.043869 0.046814 -0.971382 -0.655039 -1.55163 -1.53674 -1.51744 -1.49926 -1.50317 -1.51393 -1.5388 -1.58524 -3.46692 -3.46692 -3.46692 -3.46692 -3.46692 -3.46692 -3.46692 0.047081
-3.46692 -3.46692 -3.46692 -3.46692 -3.46692 -3.46692 -3.46692 -3.46692 -3.46692 0.123344 0.121042 0.120018 0.117243 0.115215 0.114668 0.114805 0.118208 -3.46692 -3.46692 -3.46692 -3.46692 -3.46692 -3.46692 -3.46692 -3.46692 -3.46692 -3.46692 -1.54636 -1.48211 -1.46653 -1.4671 -1.46912 -1.46721 -1.49433 -1.48577 -0.686892 -0.789577 0.01019 0.0304265 0.0974026 0.0971622 0.0961246 0.0934391 0.0928192 0.0912094 0.0910912 0.0883808 0.0862656 0.0845108 0.0831108 0.0814781 0.0793285 2.56492 0.0767498 0.0737934 0.073822 0.0742092 0.0710017 0.0700169 0.06633 0.0646763 0.0649109 0.0645657 0.0621529 0.0614948 0.0601234 0.0592594 0.059082 0.0594864 0.056757 0.0536823 0.0543995 0.0525923 0.0488243 0.0487804 -3.46692 -3.46692 -3.46692 -3.46692 -3.46692 -3.46692 -3.46692 -1.62529 -1.58885 -1.54137 -1.51982 -1.51825 -1.51715 -1.55223 -1.57766 -1.55519 -0.549271 -0.607812 0.0610956 0.0576572 0.0587902 0.0545769 0.0513592 0.049324 0.0470886 0.0477486 0.0471344 0.0449448 0.0445232 0.0447807 2.05112 2.05884 0.0360584 1.0568 2.01363 0.0344391 0.0297585 0.0277939 0.0286388 0.0275745 0.0288162 0.0283546 0.0304813 0.0289021 0.0279865 0.0278664 0.0273609 0.0262527 0.0236845 0.026233 0.0202751 0.0207462 0.0165939 0.0151215 0.0145378 0.0138149 0.00551224 0.00409508 -3.46692 -3.46692 -3.46692 -3.46692 -1.60407 -1.60532 -1.54553 -1.53438 -1.53375 -1.53481 -1.55941 -1.59084 -1.55013 -0.572297 -0.44702 -0.147383 0.00160313 0.0147018 0.0158195 0.0158272 0.0163708 0.0173531 0.0172939 0.0150814 0.0137711 0.0118885 0.0103645 0.00920296 0.0092144 0.00779724 0.00681496 0.00644493 0.004879 0.00391006 0.00143623 0.00069809 -0.000494003 -0.0411139 -0.00406265 -0.00392532 -0.00624847 -0.0883064 -0.263653 -0.336036 -0.17501 -0.0379505 -0.00158691 0.0765559 0.21267 0.337378 0.39383 0.356145 0.358292 0.426105 0.424078 0.424881 0.425848 0.388223 0.375082 0.341597 0.330645 0.351348 0.317351 0.322509 0.322235 0.321425 0.32713 0.335955 0.336171 0.388559 0.42487 0.442656 0.450279 0.449379 0.447649 0.368168 0.369451 0.388299 0.326654 0.198588 0.0669409 0.00565815 -0.0239086 -0.161787 -0.321301 -0.289302 -0.0544376 0.00961304 0.00998116 0.0119534 0.01161 0.0123444 0.0132236 0.0141754 0.0150032 0.0164433 0.0165386 0.0156975 0.0169334 0.0178871 0.0177059 0.0188751 0.0188255 0.0193335 0.0181561 0.0180893 0.0184631 0.0184116 0.0209351 0.0225849 0.0238914 0.0237427 0.0245934 -0.831818 -0.460917 -1.56285 -1.60636 -1.545 -1.52021 -1.51656 -1.53344 -1.54999 -1.58684 -3.46692 -3.46692 -3.46692 -3.46692 -3.46692 0.02631 0.0251293 0.0267582 0.0249825 0.0256691 0.0234985 0.0248423 0.0229874 0.022131 0.0222626 0.0236053 0.02215 0.0215797 0.0214119 0.0186691 0.0144367 0.00485992 0.000478745 0.00307083 0.000802994 0.00519753 1.64167 2.14456 2.36807 1.52621 0.0217705 0.0233212 0.0249386 0.0258942 0.0284977 0.0302792 0.0317364 0.0339489 0.0368919 0.0402126 0.0413322 0.0410261 0.0433331 0.0454559 0.0489311 0.0505047 -0.794528 -0.500417 -1.23601 -1.57532 -1.51696 -1.50141 -1.50246 -1.53037 -1.5922 -1.56419 -3.46692 -3.46692 -3.46692 -3.46692 -3.46692 -3.46692 -3.46692 0.0488224
