-0.177459 -0.260799 -0.229726 -0.213526 -0.270757 -0.2554 -0.223264 -0.0390663 -0.0392599 -0.0395832 -0.0380116 -0.0376425 -0.0400343 -0.0381079 -0.0358801 -0.0359468 -0.0361423 -0.0375395 -0.0372581 -0.0369809 -0.0355911 -0.0371923 -0.0376577 -0.0352618 -0.0364017 -0.0325826 -0.0355721 -0.0357615 -0.0368671 -0.0348701 -0.0335979 -0.0363903 -0.0346718 -0.0345014 -0.0322266 -0.0346527 -0.0354462 -0.0312443 -0.0331469 -0.0365133 -0.0349375 -0.0342992 -0.033371 -0.0338898 -0.0350716 -0.0316747 -0.033555 -0.033309 -0.0349932 -0.0323935 -0.0367641 -0.0337439 -0.0342436 -0.034818 -0.0352554 -0.0333748 -0.0502838 -0.0581827 -0.0771812 -0.246819 -0.256679 -0.233459 -0.247765 -0.233992 -0.228532 -0.298204 -0.236688 -0.0494394 -0.0452525 -0.0441653 -0.0416393 -0.0466225 -0.0307932 -0.0284882 -0.0337166 -0.0317783 -0.0304155 -0.0304937 -0.0305672 -0.0297327 -0.0281935 -0.0291576 -0.0287991 -0.0287971 -0.027771 -0.0288239 -0.0282927 -0.0300458 -0.0319862 -0.0319506 -0.0287914 -0.0322866 -0.0298882 -0.0298986 -0.029603 -0.0274372 -0.0271664 -0.0269032 -0.02808 -0.0277882 -0.0276556 -0.0261202 -0.0823395 -0.02683 -0.027668 -0.026166 -0.0252393 -0.0280981 -0.0282951 -0.0266838 -0.123585 -0.0902491 -0.0279722 -0.0282478 -0.0288715 -0.0260468 -0.0257797 -0.0261536 -0.0264816 -0.0252355 -0.0237083 -0.0264339 -0.0683537 -0.0250079 -0.0256716 -0.197944 -0.242456 -0.291679 -0.283116 -0.27364 -0.263995 -0.312536 -0.301807 -0.248228 -0.0239538 -0.0243254 -0.0280666 -0.0313721 -0.228244 -0.316918 -0.295149 -0.320825 -0.294395 -0.369195 -0.294548 -0.278665 -0.261359 -0.0852211 -0.0237637 -0.0255121 -0.0266886 -0.0242335 -0.0252711 -0.0251643 -0.0255063 -0.0228132 -0.0249176 -0.0207253 -0.0225115 -0.025403 -0.0198364 -0.0206852 -0.0226717 -0.0238914 -0.0206232 -0.0208445 -0.0240574 -0.0208426 -0.0212917 -0.0231829 -0.019906 -0.0218039 -0.0214472 -0.0225105 -0.0203867 -0.020153 -0.0187454 -0.0186234 -0.0205498 -0.019453 -0.0222931 -0.0194683 -0.0193462 -0.0222994 -0.0184441 -0.0214558 -0.0202541 -0.0191526 -0.0212619 -0.0185509 -0.0171871 -0.0166531 -0.0194855 -0.0166702 -0.016922 -0.0178747 -0.0174313 -0.0185575 -0.0194931 -0.0191841 -0.0201321 -0.0313978 -0.0196927 -0.0208359 -0.0180283 -0.0189819 -0.0207453 -0.0197754 -0.0198898 -0.0194759 -0.0626863 -0.15769 -0.0228052 -0.0175953 -0.021155 -0.0209503 -0.0204639 -0.0216846 -0.0226841 -0.0241728 -0.0187836 -0.0222613 -0.0226161 -0.0230932 -0.0268154 -0.0304441 -0.0246172 -0.0239811 -0.0231304 -0.0227709 -0.0242844 -0.0231056 -0.0258675 -0.0220556 -0.0226345 -0.02281 -0.0245972 -0.0232201 -0.0243187 -0.0246439 -0.0245349 -0.0263023 -0.0226593 -0.0254183 -0.024066 -0.020731 -0.0216751 -0.0241814 -0.0241191 -0.0236921 -0.0245857 -0.0241127 -0.0238295 -0.02635 -0.0241699 -0.0231056 -0.0251446 -0.0232849 -0.0744839 -0.182204 -0.021327 -0.0201874 -0.0219727 -0.0258026 -0.183002 -0.0180753 -0.0192776 -0.0171509 -0.019708 -0.0199127 -0.0182896 -0.0178909 -0.0175285 -0.0197258 -0.0209122 -0.0228971 -0.0186405 -0.0182597 -0.0199051 -0.0201855 -0.0160103 -0.0162277 -0.0182838 -0.0555992 -0.0184727 -0.0161413 -0.0177822 -0.0178165 -0.0183487 -0.0167761 -0.0163193 -0.0189857
-0.431995 -0.422728 -0.409683 -0.412338 -0.420289 -0.32978 -0.214089 -0.036274 -0.039072 -0.0382881 -0.037899 -0.0387599 -0.037488 -0.0368716 -0.0382099 -0.0374451 -0.0368338 -0.0354605 -0.0361239 -0.0353444 -0.0350024 -0.0381069 -0.0384922 -0.0357294 -0.0368423 -0.033968 -0.0350275 -0.0339909 -0.0347824 -0.0352316 -0.0355425 -0.0337467 -0.03442 -0.0333049 -0.0341673 -0.0346928 -0.0369148 -0.0342131 -0.0326443 -0.0328445 -0.0326335 -0.0337448 -0.0344172 -0.0339294 -0.0330683 -0.0337019 -0.0331373 -0.0335293 -0.0312487 -0.0331777 -0.0316133 -0.0327005 -0.0335528 -0.0346069 -0.0335636 -0.0508957 -0.0629234 -0.0323868 -0.0325737 -0.430156 -0.429485 -0.271411 -0.433202 -0.434935 -0.417345 -0.427579 -0.29203 -0.031086 -0.0310542 -0.033563 -0.218661 -0.226729 -0.201422 -0.194648 -0.170964 -0.220515 -0.236046 -0.028964 -0.0287094 -0.0307236 -0.0307055 -0.0281744 -0.0298023 -0.0308456 -0.0289936 -0.027914 -0.0292328 -0.0299044 -0.0312357 -0.0289774 -0.0268669 -0.0300802 -0.0293789 -0.028513 -0.0297216 -0.0302658 -0.0290324 -0.0263529 -0.0277548 -0.0279837 -0.02637 -0.0809456 -0.31386 -0.204746 -0.216857 -0.220655 -0.239451 -0.21713 -0.206273 -0.128361 -0.0988331 -0.0887966 -0.0254898 -0.0278091 -0.0247984 -0.0263405 -0.0244026 -0.0240746 -0.0249052 -0.0257702 -0.0242233 -0.0263109 -0.0264044 -0.0288258 -0.0236549 -0.18611 -0.442875 -0.444328 -0.450219 -0.446054 -0.419102 -0.43846 -0.452465 -0.449551 -0.0248661 -0.0251637 -0.0565872 -0.0255938 -0.228674 -0.474714 -0.476662 -0.4784 -0.478638 -0.468098 -0.458153 -0.479583 -0.479623 -0.0687771 -0.02285 -0.0237249 -0.0239468 -0.0234095 -0.0230093 -0.0228691 -0.0224533 -0.0244408 -0.0219517 -0.0217133 -0.0238508 -0.02528 -0.0231447 -0.0230198 -0.024621 -0.0239881 -0.0215425 -0.0249659 -0.0212469 -0.021121 -0.0206852 -0.021162 -0.0213795 -0.0205755 -0.0205336 -0.0208797 -0.0217752 -0.0202293 -0.0207577 -0.021039 -0.0193615 -0.02036 -0.0201855 -0.0205599 -0.0193748 -0.0180982 -0.0165691 -0.017354 -0.0195986 -0.0179392 -0.0185305 -0.0171537 -0.0171242 -0.019537 -0.0192986 -0.0186335 -0.0192537 -0.0167974 -0.0177765 -0.0204191 -0.0181065 -0.0185747 -0.181074 -0.238246 -0.213863 -0.251538 -0.253071 -0.231664 -0.21014 -0.263251 -0.0189466 -0.0210161 -0.0442337 -0.156517 -0.019659 -0.0218277 -0.0197589 -0.0205053 -0.0211182 -0.0215445 -0.0214437 -0.0209446 -0.0223961 -0.0228895 -0.105428 -0.132909 -0.023819 -0.0956478 -0.0207291 -0.144277 -0.11033 -0.160838 -0.0232697 -0.0225658 -0.0246162 -0.020284 -0.0262356 -0.0224314 -0.0262171 -0.0226746 -0.023941 -0.0234222 -0.0237363 -0.0244865 -0.025706 -0.0248737 -0.0233679 -0.0233727 -0.02384 -0.0232747 -0.0249608 -0.0240631 -0.0227661 -0.0254262 -0.0255788 -0.0247746 -0.0237694 -0.0213556 -0.0210991 -0.174309 -0.226349 -0.318217 -0.359975 -0.216583 -0.252281 -0.246465 -0.285294 -0.284188 -0.0194435 -0.0195363 -0.0174815 -0.0178528 -0.021162 -0.0204086 -0.0181713 -0.0177402 -0.0180511 -0.0194893 -0.0163549 -0.0175457 -0.0173378 -0.0165431 -0.0187937 -0.0376892 -0.0235723 -0.0524769 -0.193011 -0.166258 -0.149981 -0.115389 -0.186527 -0.163722 -0.172962 -0.179292
-0.432532 -0.386165 -0.389641 -0.430744 -0.379524 -0.361286 -0.230974 -0.0346165 -0.0388832 -0.0410337 -0.0396967 -0.0392049 -0.0382442 -0.0381368 -0.0373878 -0.0399227 -0.0382977 -0.0374031 -0.0372899 -0.0361605 -0.0371666 -0.037365 -0.0364828 -0.0349299 -0.0354767 -0.0357221 -0.0343008 -0.0368004 -0.0372934 -0.0364761 -0.0333977 -0.0356092 -0.0370693 -0.0356131 -0.0351782 -0.0363312 -0.0330238 -0.0336409 -0.0325298 -0.0343857 -0.0354404 -0.0341177 -0.0351563 -0.0344269 -0.032917 -0.0332553 -0.0351334 -0.0335223 -0.0316137 -0.0326589 -0.0326786 -0.0341568 -0.0322418 -0.0346031 -0.0318804 -0.0343234 -0.0312055 -0.0325098 -0.0348082 -0.425383 -0.428932 -0.428886 -0.372874 -0.40274 -0.426477 -0.422158 -0.290365 -0.0315653 -0.0336933 -0.0716362 -0.416161 -0.416666 -0.41461 -0.377161 -0.356987 -0.270785 -0.222924 -0.0300388 -0.0306501 -0.0295019 -0.0305958 -0.0283127 -0.0304743 -0.0293217 -0.0301628 -0.0298729 -0.0292308 -0.030035 -0.0313673 -0.0312856 -0.0285721 -0.0306218 -0.0267296 -0.028554 -0.027078 -0.0287031 -0.0270322 -0.0273544 -0.0259476 -0.0258226 -0.0256933 -0.140428 -0.409902 -0.412377 -0.415404 -0.389298 -0.3983 -0.427613 -0.421974 -0.21957 -0.093977 -0.0882854 -0.0239792 -0.027216 -0.0273829 -0.0256856 -0.0258684 -0.0254517 -0.0244357 -0.0240809 -0.025547 -0.0245419 -0.024868 -0.0363255 -0.0325804 -0.247266 -0.447446 -0.450482 -0.451708 -0.447378 -0.414583 -0.418401 -0.458115 -0.455305 -0.0287943 -0.0234585 -0.0449015 -0.0463276 -0.202811 -0.478231 -0.477548 -0.480985 -0.441986 -0.46211 -0.451242 -0.467321 -0.478991 -0.0331116 -0.100931 -0.0233072 -0.0259628 -0.0237494 -0.0221796 -0.0225766 -0.0225315 -0.0206947 -0.0199343 -0.020649 -0.0210164 -0.0222187 -0.0219984 -0.0199699 -0.0226987 -0.0224094 -0.0209923 -0.0222244 -0.0213178 -0.0207151 -0.021903 -0.0187263 -0.0190125 -0.0214767 -0.0183468 -0.0212412 -0.0199242 -0.0202243 -0.018014 -0.0194893 -0.0201861 -0.017849 -0.0197439 -0.0170453 -0.0178118 -0.0188646 -0.0195427 -0.017705 -0.0192032 -0.0169907 -0.0170918 -0.0174961 -0.0186596 -0.0192947 -0.0193653 -0.0169652 -0.0163565 -0.0165558 -0.0179605 -0.0175247 -0.0198568 -0.0879354 -0.219901 -0.45657 -0.346913 -0.277233 -0.35084 -0.204893 -0.233917 -0.361588 -0.0225487 -0.020251 -0.0626539 -0.15029 -0.0215034 -0.0201759 -0.021369 -0.0209414 -0.0187616 -0.019659 -0.0194295 -0.0224686 -0.019474 -0.023098 -0.208994 -0.277345 -0.187192 -0.217223 -0.231032 -0.286309 -0.258899 -0.273725 -0.0580803 -0.0225916 -0.0248795 -0.0210279 -0.0228262 -0.0239385 -0.0240847 -0.0253181 -0.0250731 -0.0220515 -0.0253 -0.0239487 -0.0227865 -0.0259237 -0.0221882 -0.0217209 -0.0224218 -0.0245056 -0.0218658 -0.023524 -0.0222282 -0.0226835 -0.0262616 -0.0229925 -0.0224781 -0.0212116 -0.0228462 -0.174039 -0.27986 -0.404176 -0.410006 -0.382729 -0.340499 -0.310841 -0.349468 -0.401308 -0.294975 -0.0186729 -0.0166957 -0.0156288 -0.0177345 -0.0165014 -0.0160192 -0.0164375 -0.0186361 -0.0183735 -0.0175959 -0.0172475 -0.0159912 -0.0148481 -0.0140864 -0.0147953 -0.0224113 -0.0689888 -0.208856 -0.304198 -0.394777 -0.206837 -0.2632 -0.178666 -0.248695 -0.411259
-0.429231 -0.396281 -0.372271 -0.439583 -0.384201 -0.354858 -0.282049 -0.0373602 -0.0379162 -0.0378437 -0.0395775 -0.0389757 -0.0394745 -0.0388117 -0.037529 -0.0369771 -0.0382652 -0.0376883 -0.0382833 -0.0366605 -0.0384264 -0.0372639 -0.0381975 -0.0355733 -0.0365728 -0.0358404 -0.0358467 -0.0358295 -0.0354614 -0.0392818 -0.0351772 -0.0331421 -0.0347481 -0.035511 -0.0341403 -0.0345764 -0.0356649 -0.0329819 -0.0324306 -0.0334206 -0.0325063 -0.0347137 -0.0335782 -0.0330315 -0.0331621 -0.0352297 -0.0343018 -0.0316353 -0.0320587 -0.0337267 -0.0347052 -0.0328655 -0.0336027 -0.0330124 -0.0339108 -0.0329018 -0.0337652 -0.0323397 -0.0350275 -0.429615 -0.427193 -0.386635 -0.429361 -0.430212 -0.42702 -0.432798 -0.291117 -0.0312366 -0.0321706 -0.0921936 -0.4178 -0.416463 -0.413579 -0.374938 -0.391575 -0.331697 -0.239963 -0.030633 -0.0291281 -0.0287685 -0.0289717 -0.0309792 -0.0288022 -0.0286166 -0.0288582 -0.0283356 -0.0289068 -0.0301908 -0.0291338 -0.0302493 -0.0279789 -0.0274363 -0.0274143 -0.0274191 -0.0273619 -0.0282059 -0.029604 -0.0275122 -0.027743 -0.0249939 -0.0253359 -0.154942 -0.411611 -0.409816 -0.416155 -0.413561 -0.415144 -0.414522 -0.4118 -0.284621 -0.103849 -0.0869741 -0.0243314 -0.0261621 -0.0284662 -0.0258039 -0.0269127 -0.0248604 -0.0245218 -0.0233482 -0.0235939 -0.0244331 -0.0252266 -0.0264549 -0.0261281 -0.20726 -0.451932 -0.45424 -0.45045 -0.416959 -0.436532 -0.4279 -0.389658 -0.460342 -0.0274493 -0.0227823 -0.0231943 -0.0255222 -0.299602 -0.478279 -0.482216 -0.481034 -0.413647 -0.435815 -0.453868 -0.383157 -0.464088 -0.0275879 -0.0532926 -0.0417738 -0.0248966 -0.0254542 -0.0234852 -0.0222613 -0.0213852 -0.0218124 -0.0197385 -0.0203679 -0.0204811 -0.0221815 -0.020682 -0.0204735 -0.0209363 -0.0217234 -0.0177574 -0.022768 -0.0203807 -0.0206299 -0.0209141 -0.0193214 -0.0210381 -0.0215082 -0.0205936 -0.0218277 -0.0182813 -0.0181913 -0.0173368 -0.0200132 -0.0202738 -0.0185156 -0.0214367 -0.0178967 -0.0178537 -0.0177164 -0.0199718 -0.016468 -0.0197878 -0.019165 -0.019976 -0.0180836 -0.0171127 -0.0176964 -0.0180321 -0.0182657 -0.0170135 -0.0162172 -0.0177526 -0.018795 -0.0181402 -0.0178375 -0.244638 -0.46309 -0.461896 -0.4583 -0.373486 -0.428642 -0.357848 -0.399364 -33.9416 -0.0213089 -0.044986 -0.150956 -0.0204191 -0.0227509 -0.0183144 -0.0191689 -0.0179939 -0.0201626 -0.0171785 -0.0201931 -0.021244 -0.0193157 -0.316745 -0.409834 -0.411188 -0.389 -0.401672 -0.409418 -0.380277 -0.40934 -0.13345 -0.0618172 -0.0638173 -0.0221176 -0.0218954 -0.0226224 -0.0216217 -0.0203171 -0.0234165 -0.0236635 -0.0233688 -0.0224552 -0.0225496 -0.0242882 -0.0229168 -0.0214119 -0.0244274 -0.0242262 -0.0232251 -0.0220159 -0.0212059 -0.0223255 -0.023215 -0.0214958 -0.0210864 -0.0216942 -0.0202878 -0.0718142 -0.323352 -0.403136 -0.403753 -0.371653 -0.381488 -0.378958 -0.352727 -0.390881 -0.287428 -33.9416 -0.016387 -0.016511 -0.0160789 -0.0173225 -0.0194454 -0.0153427 -0.0168432 -0.0195694 -0.0167351 -0.0171598 -0.0171852 -0.0169245 -0.016099 -0.01408 -0.0304947 -0.0174294 -0.200315 -0.392209 -0.400761 -0.416268 -0.375511 -0.4033 -0.364025 -0.413727
-0.427156 -0.399586 -0.367188 -0.416439 -0.404725 -0.373316 -0.238523 -0.0357513 -0.0378017 -0.0395479 -0.0403376 -0.0387522 -0.039691 -0.0403277 -0.0369434 -0.0369174 -0.0405388 -0.0391674 -0.0368443 -0.0368169 -0.0382471 -0.0350933 -0.0367432 -0.0340614 -0.0384814 -0.0370398 -0.0376282 -0.0364418 -0.0363223 -0.0357733 -0.0349064 -0.0358378 -0.0346451 -0.0371342 -0.0368843 -0.0346947 -0.0350558 -0.0325499 -0.0334425 -0.0314827 -0.0334676 -0.0367374 -0.0347233 -0.0345512 -0.0328827 -0.0339381 -0.0341578 -0.0339966 -0.0340843 -0.0344251 -0.0337315 -0.0327654 -0.0332642 -0.0354449 -0.0330849 -0.0343714 -0.0335026 -0.0341504 -0.0351206 -0.430939 -0.430033 -0.427204 -0.40337 -0.409184 -0.419699 -0.39022 -0.291013 -0.0301905 -0.0327654 -0.0389328 -0.420218 -0.418908 -0.417311 -0.381264 -0.374758 -0.339423 -0.294938 -0.027524 -0.028863 -0.0302515 -0.0286274 -0.0295219 -0.0300236 -0.0290502 -0.0285797 -0.0301914 -0.0280113 -0.0286013 -0.0315495 -0.0300655 -0.0284262 -0.027729 -0.0266304 -0.0278654 -0.0286458 -0.026597 -0.0283146 -0.0274652 -0.0259867 -0.0273209 -0.0233374 -0.121564 -0.410612 -0.409966 -0.388964 -0.386323 -0.419157 -0.402691 -0.41286 -0.156923 -0.112521 -0.0875826 -0.0261774 -0.0253245 -0.0279446 -0.0274172 -0.0234197 -0.0249872 -0.0243924 -0.0240421 -0.0237134 -0.0243931 -0.0225677 -0.0241165 -0.0255814 -0.307641 -0.454506 -0.455146 -0.457242 -0.42732 -0.433617 -0.438515 -0.445223 -0.463305 -0.027771 -0.0240192 -0.0233212 -0.0253954 -0.290352 -0.480226 -0.480958 -0.484941 -0.433084 -0.456658 -0.449149 -0.441367 -0.483464 -0.0296001 -0.0255013 -0.0225286 -0.0238075 -0.0235748 -0.020421 -0.0224237 -0.0223694 -0.0184682 -0.0203915 -0.020401 -0.022191 -0.0222092 -0.0219434 -0.0213747 -0.0199652 -0.0215085 -0.0191908 -0.0212072 -0.0219059 -0.0209074 -0.0215416 -0.0205469 -0.0194159 -0.0235319 -0.0205545 -0.0201082 -0.0195751 -0.0172094 -0.018158 -0.018748 -0.0192938 -0.017519 -0.018054 -0.0183767 -0.0178795 -0.018465 -0.0161867 -0.0186348 -0.020902 -0.0210114 -0.0200777 -0.0185156 -0.015152 -0.0186768 -0.0197525 -0.0179768 -0.0185509 -0.0166245 -0.0184956 -0.0178814 -0.0190659 -0.018259 -0.22957 -0.467097 -0.464307 -0.435958 -0.371844 -0.437307 -0.420486 -0.396834 -33.9416 -0.0178432 -0.0188608 -0.151669 -0.0213184 -0.0230141 -0.019455 -0.019352 -0.0192013 -0.0207396 -0.0228373 -0.0224215 -0.0219727 -0.0209936 -0.183835 -0.416306 -0.418212 -0.418056 -0.41699 -0.424078 -0.418659 -0.378898 -33.9416 -0.023819 -0.0851917 -0.0218105 -0.023262 -0.0251064 -0.0253677 -0.0235939 -0.0218391 -0.0216084 -0.0224609 -0.0240574 -0.0247078 -0.0233192 -0.0230726 -0.0238876 -0.0232439 -0.0245571 -0.023097 -0.0228602 -0.0228081 -0.022974 -0.0229352 -0.0231647 -0.0191555 -0.0225039 -0.0206846 -0.149381 -0.2291 -0.40244 -0.397581 -0.368061 -0.378923 -0.377041 -0.322657 -0.391443 -33.9416 -0.134911 -0.0179876 -0.0166359 -0.015646 -0.0168686 -0.0179329 -0.0157461 -0.0187022 -0.0190182 -0.017868 -0.016463 -0.0171127 -0.0158873 -0.0145893 -0.0138397 -0.0158367 -0.0148048 -0.218332 -0.396461 -0.400242 -0.364096 -0.409774 -0.419111 -0.381168 -0.414448
-0.410628 -0.419202 -0.405512 -0.398979 -0.396131 -0.417121 -0.236647 -0.0364256 -0.0385561 -0.0400791 -0.0396051 -0.0382462 -0.0409203 -0.0377057 -0.0365868 -0.0378637 -0.0386899 -0.0386639 -0.0365734 -0.0374889 -0.0344257 -0.0373507 -0.0363941 -0.0364847 -0.0353088 -0.0352821 -0.0361843 -0.0370026 -0.0339708 -0.0357533 -0.0367069 -0.0354843 -0.0359001 -0.0361538 -0.0376129 -0.033637 -0.0335674 -0.0354471 -0.0323792 -0.0336049 -0.0356665 -0.0341902 -0.0343895 -0.0319888 -0.0335588 -0.0341835 -0.0320625 -0.0325597 -0.0310809 -0.0320142 -0.0331459 -0.0336819 -0.032444 -0.0339584 -0.0340014 -0.0334806 -0.0313473 -0.0308409 -0.0295385 -0.428688 -0.429129 -0.427395 -0.380304 -0.401613 -0.424019 -0.420227 -0.289501 -0.0286503 -0.0317345 -0.0707329 -0.403802 -0.4198 -0.418613 -0.410932 -0.368968 -0.411035 -0.285098 -0.028595 -0.0277977 -0.029974 -0.0299861 -0.0317736 -0.0305519 -0.0291405 -0.0287081 -0.0283651 -0.0285025 -0.0299377 -0.0284243 -0.0288366 -0.027914 -0.0263538 -0.0268606 -0.0274353 -0.0277939 -0.0288563 -0.025816 -0.0266851 -0.0277201 -0.0322142 -0.0248938 -0.0311012 -0.4117 -0.412867 -0.413401 -0.396955 -0.39327 -0.423426 -0.39443 -0.222396 -0.0920439 -0.0631688 -0.0262213 -0.0245921 -0.026083 -0.0254898 -0.024251 -0.0266113 -0.02314 -0.0229899 -0.0240812 -0.0235596 -0.0237246 -0.0253544 -0.025176 -0.192553 -0.456447 -0.460915 -0.460381 -0.461843 -0.457283 -0.460052 -0.434387 -0.466528 -0.0273314 -0.0248528 -0.0254154 -0.0250492 -0.280805 -0.483402 -0.48491 -0.483772 -0.441215 -0.451897 -0.414179 -0.443416 -0.486288 -0.0264683 -0.0243454 -0.0232658 -0.0235087 -0.0241709 -0.0212584 -0.0218277 -0.0205011 -0.0200882 -0.0192461 -0.0213919 -0.0211906 -0.0204201 -0.0216303 -0.0195169 -0.0206375 -0.0197372 -0.0206172 -0.0208588 -0.0195646 -0.0197118 -0.0183767 -0.020422 -0.0193812 -0.0210972 -0.0179634 -0.0168943 -0.0178595 -0.0209007 -0.018672 -0.02038 -0.0183169 -0.0215969 -0.0194397 -0.0175619 -0.017272 -0.0196733 -0.0174885 -0.0189915 -0.0189196 -0.0183468 -0.0168063 -0.0158405 -0.0155792 -0.0155315 -0.0166626 -0.0180035 -0.0169125 -0.0190214 -0.0180435 -0.0186056 -0.0184059 -0.0187836 -0.337004 -0.472295 -0.471253 -0.43529 -0.416028 -0.409471 -0.420307 -0.445242 -33.9416 -0.020649 -0.018486 -0.151373 -0.0211792 -0.019619 -0.0200081 -0.0202077 -0.0183525 -0.0194902 -0.0195414 -0.0211512 -0.0222378 -0.01887 -0.292152 -0.423315 -0.425627 -0.317375 -0.402789 -0.429003 -0.431654 -0.396398 -33.9416 -0.0257517 -0.0266724 -0.073369 -0.0212078 -0.0225525 -0.0195173 -0.0199585 -0.0229416 -0.0227385 -0.0219638 -0.0235138 -0.0228891 -0.0242176 -0.021375 -0.024147 -0.0223948 -0.0224981 -0.0232251 -0.0235977 -0.0230598 -0.0229816 -0.0219755 -0.0191975 -0.0209274 -0.0204487 -0.0226784 -0.0613976 -0.318541 -0.397602 -0.394577 -0.390545 -0.363627 -0.308804 -0.358093 -0.395115 -0.153553 -33.9416 -0.0437174 -0.0159206 -0.0162077 -0.016112 -0.0178528 -0.0167007 -0.0154165 -0.0181427 -0.0172815 -0.0149879 -0.0165596 -0.016084 -0.0146666 -0.0164719 -0.0153599 -0.0159988 -0.201279 -0.402045 -0.406166 -0.40175 -0.408333 -0.407206 -0.418076 -0.420029
-33.9416 -33.9416 -33.9416 -33.9416 -0.37133 -33.9416 -0.0933762 -0.042243 -0.0405903 -0.0412153 -0.0413094 -0.0393696 -0.0391464 -0.0370655 -0.0387049 -0.0384432 -0.0379562 -0.0381565 -0.036375 -0.0363337 -0.0365982 -0.0366201 -0.0359011 -0.0365353 -0.0351919 -0.0369015 -0.0377274 -0.0362959 -0.0372581 -0.0343742 -0.0357221 -0.0358944 -0.0344887 -0.0351782 -0.0365648 -0.0366983 -0.0345736 -0.0336103 -0.0315447 -0.0337963 -0.0335922 -0.0337563 -0.0318413 -0.0340481 -0.0347242 -0.0341091 -0.0327059 -0.0305634 -0.0311737 -0.0316601 -0.0304203 -0.0322208 -0.0324841 -0.0315647 -0.0311346 -0.0639178 -0.0320244 -0.0313692 -0.0317717 -33.9416 -33.9416 -0.171295 -33.9416 -33.9416 -33.9416 -33.9416 -0.0316925 -0.0318556 -0.0303326 -0.0834236 -33.9416 -33.9416 -33.9416 -33.9416 -33.9416 -0.350075 -0.0331268 -0.0297461 -0.0289469 -0.0304871 -0.0304667 -0.0303974 -0.0299549 -0.0301428 -0.0275491 -0.0305567 -0.0289478 -0.02911 -0.0302973 -0.0300007 -0.0271616 -0.027729 -0.0266809 -0.0266838 -0.026228 -0.0269184 -0.0272036 -0.0271727 -0.0252927 -0.0249646 -0.028738 -0.0467453 -33.9416 -0.41153 -0.406946 -0.411325 -0.390282 -0.419239 -0.40687 -0.219978 -0.0909729 -0.103572 -0.0275307 -0.0243082 -0.0257378 -0.0239067 -0.0249357 -0.025973 -0.024168 -0.0239894 -0.0236559 -0.025507 -0.0254618 -0.0245209 -0.0278804 -0.168194 -0.456478 -0.458172 -0.462479 -0.462463 -0.459852 -0.464344 -0.46607 -0.464104 -0.0276947 -0.0240068 -0.0243387 -0.0245247 -0.299224 -0.48584 -0.486932 -0.487366 -0.487827 -0.492306 -0.454877 -0.493261 -0.486402 -0.0256271 -0.0225601 -0.0219282 -0.0243721 -0.0226593 -0.0188332 -0.0190125 -0.0201406 -0.0203705 -0.0208645 -0.0203094 -0.0219307 -0.0223656 -0.0211538 -0.0181999 -0.0201378 -0.0190175 -0.0181198 -0.0207253 -0.0205498 -0.0195147 -0.0200663 -0.018466 -0.0172755 -0.0189877 -0.0183086 -0.019647 -0.0185261 -0.0193167 -0.0185423 -0.0197716 -0.0163994 -0.0163832 -0.0175571 -0.0184949 -0.017231 -0.0185232 -0.0189457 -0.0189381 -0.0189266 -0.0168648 -0.0173645 -0.0156441 -0.015274 -0.0190506 -0.0181971 -0.0183506 -0.0202789 -0.0165339 -0.0172796 -0.0185064 -0.0173162 -0.0162786 -0.149127 -0.470804 -0.46977 -0.466464 -0.433787 -0.446049 -0.434377 -0.46369 -33.9416 -0.0218582 -0.0457474 -0.153149 -0.0171852 -0.019248 -0.0201276 -0.0201855 -0.0199604 -0.0211754 -0.0198727 -0.0205708 -0.0190773 -0.0199318 -0.224326 -0.431211 -0.427469 -0.397256 -0.429811 -0.423133 -0.431265 -0.427948 -33.9416 -0.0234133 -0.0245495 -0.0607274 -0.0223408 -0.0226199 -0.0218296 -0.0224342 -0.0209058 -0.0234699 -0.0183983 -0.0242405 -0.0228043 -0.0227165 -0.0239143 -0.0231247 -0.0230179 -0.0218 -0.021094 -0.0215797 -0.020443 -0.0228348 -0.0210304 -0.0245438 -0.0208537 -0.0206909 -0.0213337 -0.0187569 -0.21591 -0.392296 -0.39447 -0.394999 -0.35339 -0.395597 -0.389122 -33.9416 -33.9416 -0.117073 -0.0170403 -0.0213394 -0.0155385 -0.0193723 -0.0181084 -0.0161298 -0.017354 -0.0190277 -0.0146542 -0.0166232 -0.0156822 -0.0119909 -0.0165081 -0.0125713 -0.0150404 -0.0152817 -0.198745 -0.402658 -0.40778 -0.412182 -0.422142 -0.387946 -0.424698 -0.425682
-33.9416 -33.9416 -33.9416 -33.9416 -33.9416 -33.9416 -33.9416 0.062561 -33.9416 -0.0416374 -0.0381813 -0.0410194 -0.0389595 -0.0384242 -0.0377216 -0.0398483 -0.0387096 -0.0384512 -0.0385628 -0.0376701 -0.0365772 -0.0358753 -0.040369 -0.0361824 -0.0361519 -0.0365855 -0.0382233 -0.0372124 -33.9416 -0.0391464 -0.0411453 -0.0338516 -0.0363579 0.00398254 -33.9416 -33.9416 -33.9416 0.048912 -0.0342216 -0.0227108 -0.0359993 -0.0341129 -0.0323784 -0.0327772 -0.0349293 -0.0343424 -0.0316896 -0.0315275 -0.0318651 -0.0297763 -0.0312662 -0.0321178 -0.0304794 -0.0335064 -0.030859 -0.0716667 -0.0307989 -0.0310097 -0.0329842 -0.033535 -0.0332947 -33.9416 -33.9416 -33.9416 -33.9416 -0.0823593 -0.0322838 -0.0282593 -0.0238113 -33.9416 -33.9416 -33.9416 -33.9416 -33.9416 -33.9416 -33.9416 -0.0327517 -0.029562 -0.0297918 -0.0289621 -0.0280561 -0.026804 -0.0284967 -0.0286827 -0.0285632 -0.0286999 -0.0288334 -0.0282605 -0.0300674 -0.0308685 -0.0237198 -0.00933075 0.0618362 0.074892 -0.0280724 0.0240917 0.00528526 0.0127716 -0.0203228 -0.0234566 -0.0285969 -0.00326538 -33.9416 -33.9416 -33.9416 -33.9416 -33.9416 -33.9416 -33.9416 -0.0254726 -0.0882425 -0.0840635 -0.0253496 -0.0266542 -0.0272827 -0.0272992 -0.027586 -0.0265417 -0.0234083 -0.0252164 -0.024334 -0.0253105 -0.023379 -0.0229683 -0.0254135 -33.9416 -33.9416 -33.9416 -33.9416 -33.9416 -33.9416 -33.9416 -33.9416 -33.9416 -33.9416 0.0912838 0.0922966 -0.0248585 -0.230045 -0.478619 -33.9416 -33.9416 -33.9416 -0.486294 -33.9416 -0.490143 -0.489952 -0.0244732 -0.0216446 -0.0214933 -0.0250244 -0.0177345 -0.0104504 -0.000148773 -33.9416 -33.9416 -0.0031147 -0.0162125 0.104088 -33.9416 -0.0051384 -0.0191746 -0.017189 -0.0182304 0.0392265 0.0105031 -0.0217676 -0.0190239 -0.0188332 -0.0198526 -0.0180044 -0.0180731 -0.0200148 -0.0187263 -0.0212555 -0.01894 -0.0161896 -0.0213919 -0.0181179 -0.019989 -0.0179863 -0.0169115 -0.0187664 -0.0183811 -0.0174637 -0.0176888 -0.0217845 -0.00775337 -33.9416 0.107801 0.112598 0.0392323 -33.9416 -33.9416 -0.0128059 0.134274 -33.9416 -33.9416 0.133762 -33.9416 -33.9416 -33.9416 -0.301785 -33.9416 -0.24535 -33.9416 -33.9416 -33.9416 -33.9416 -0.021883 -0.0193272 -0.152216 -0.0201607 -0.0206985 -0.0228958 0.102522 0.11039 0.115831 0.117496 -33.9416 -33.9416 -33.9416 -33.9416 -33.9416 -33.9416 -33.9416 -33.9416 -33.9416 -33.9416 -33.9416 -0.169937 -0.0384245 -0.0255852 -0.074468 -0.023387 -0.022296 -0.0250244 -0.0244389 -0.0205336 -0.0227604 -0.020359 -0.0224228 -0.0216891 -0.0237656 -0.018755 -0.0213089 -0.0209694 -0.020298 -0.0213041 -0.0221024 -0.0169792 0.0428638 0.00240707 0.0988159 0.105089 -33.9416 -33.9416 -33.9416 0.160973 -33.9416 -33.9416 -33.9416 -33.9416 -33.9416 -33.9416 -33.9416 -33.9416 -0.117798 -0.0166168 -0.0206261 -0.0169462 -0.0159607 -0.0148411 -0.0150668 -0.016744 -0.0132179 -0.0121832 -0.00837708 0.110634 0.109409 -33.9416 0.115301 -33.9416 -33.9416 -0.204964 -33.9416 -33.9416 -33.9416 -33.9416 -33.9416 -33.9416 -33.9416
-33.9416 -33.9416 0.148705 -33.9416 -33.9416 0.0814171 0.107431 0.121023 0.100936 0.0829496 0.0812206 0.0815887 0.0697899 -0.0369581 -0.0377617 -0.0371418 -0.0380402 -0.038332 -0.0386105 -0.0382207 -0.0383511 -0.0382853 -0.0383501 -0.035923 -0.0354519 0.0434596 0.097023 0.0850739 0.0861588 0.1048 0.0981226 0.135061 0.127098 -33.9416 -33.9416 -33.9416 0.156691 0.162277 0.162411 0.125729 -0.0343065 -0.0323553 -0.0318502 -0.0314007 -0.0319643 -0.0305888 -0.0312068 -0.0292791 -0.0290642 -0.0283076 -0.0312017 -0.0299733 -0.0355759 -0.0292788 -0.0314512 -0.056764 -0.0318794 -0.0316531 -0.0325813 -0.0316715 -0.032383 0.0431194 0.0930977 -33.9416 0.0912476 -33.9416 -33.9416 -33.9416 0.101131 0.084053 -33.9416 -33.9416 -33.9416 -33.9416 -33.9416 -0.0298443 -0.0268345 -0.0285645 -0.0310955 -0.0289993 -0.0280247 -0.0307989 -0.0295773 -0.0286427 -0.0305773 -0.0301571 -0.028554 -0.0292015 0.0314379 0.164497 -33.9416 -33.9416 0.148521 -33.9416 0.0936165 0.094223 0.182049 0.150328 0.184347 0.157791 0.161255 -33.9416 -0.0136223 -0.0250397 -0.0264606 -0.0255966 -0.0245934 -0.0310796 -0.0385132 -0.0285746 -0.0899506 -0.084034 -0.0239773 -0.0230484 -0.0262098 -0.0241861 -0.0247707 -0.0262515 -0.0239436 -0.0246468 -0.0261087 -0.024312 -0.0232105 -0.0249958 0.0397701 0.141289 -33.9416 -33.9416 -33.9416 -0.0541191 -33.9416 -33.9416 -33.9416 -33.9416 0.0965509 0.105686 0.104645 0.104389 0.0560417 -33.9416 -0.212372 -33.9416 -0.314533 -33.9416 -0.184849 -33.9416 -33.9416 -0.0253086 -0.0227127 -0.0222931 -0.0223935 -0.00494194 0.100239 0.100799 0.101026 0.101463 0.10071 0.102545 0.104333 0.15247 0.151765 0.150799 0.148252 0.144152 0.143784 0.101554 -0.0191059 -0.0199623 -0.0210819 -0.0189349 -0.0218468 -0.0200551 -0.0188522 -0.0195265 -0.020257 -0.0192477 -0.0200281 -0.0200768 -0.0194143 -0.0188236 -0.0181789 -0.0186615 -0.017909 -0.0182562 -0.0185289 -0.0182838 -0.0199064 -0.011673 0.172338 0.17207 0.172798 0.151859 0.134853 0.129196 0.11242 -33.9416 -33.9416 -33.9416 0.140896 0.225895 -33.9416 0.253172 -33.9416 -33.9416 -33.9416 -33.9416 -33.9416 -33.9416 -0.114925 -0.0339088 -0.0212498 -0.154142 -0.0207214 -0.0202389 -0.0183849 -33.9416 -33.9416 -33.9416 -33.9416 -33.9416 -33.9416 0.109362 0.188681 0.200684 -33.9416 -33.9416 -33.9416 -33.9416 -33.9416 -33.9416 -0.207981 -0.0248108 -0.0228214 -0.0286751 -0.0220509 -0.0188141 -0.021979 -0.0198593 -0.0187149 -0.0233316 -0.0201467 -0.0220413 -0.0215797 -0.0209541 -0.0217848 -0.0224361 -0.0201893 -0.0216608 -0.0186825 -0.0172882 -0.0201836 0.0905914 -33.9416 -33.9416 -33.9416 0.137297 0.226021 0.143093 0.177685 0.164593 0.190746 -33.9416 -33.9416 -33.9416 -0.014679 -0.0174503 -0.022274 -0.0214157 -0.015775 -0.0148144 -0.0313683 -0.0141207 -0.0143642 -0.0148125 -0.0147285 -0.01441 -0.014197 0.0065155 -33.9416 -33.9416 -33.9416 -33.9416 -33.9416 -33.9416 0.14076 -33.9416 -33.9416 -33.9416 -33.9416 -33.9416 -33.9416 -0.0677376
0.200806 0.143799 0.172825 0.183868 0.183239 0.0764122 0.0833931 0.105342 0.0809962 0.0810127 0.080363 0.0851049 0.0767632 -0.036582 -0.0353699 -0.0367406 -0.0366809 -0.0358515 -0.0356512 -0.035895 -0.0362692 -0.0356627 -0.0369072 -0.033987 -0.0365486 0.0428658 0.0969658 0.086068 0.0860469 0.109959 0.0864754 0.13375 0.183162 0.461876 0.462494 0.338493 0.172209 0.167969 0.22929 0.127497 -0.0323086 -0.031683 -0.0333687 -0.0297089 -0.0296516 -0.028244 -0.0293147 -0.0305405 -0.0303698 -0.0288715 -0.0316353 -0.0283394 -0.0317516 -0.0313854 -0.0318222 -0.0567474 -0.030262 -0.0314255 -0.0286433 -0.0296545 -0.0307401 0.0440149 0.286967 -33.9416 -33.9416 -33.9416 -33.9416 0.199305 0.19585 0.150862 -33.9416 -33.9416 -33.9416 -33.9416 -33.9416 0.053319 -0.0291662 -0.0283775 -0.0285254 -0.029748 -0.0275936 -0.0284786 -0.0282682 -0.0294857 -0.028045 -0.028389 -0.0277367 -0.0302442 0.0317039 0.276554 0.330299 0.283588 0.210308 -33.9416 -33.9416 0.0926857 -33.9416 0.185055 0.206759 0.165848 0.183544 0.235809 0.100929 -0.0266495 -0.0264874 -0.0281525 -0.0265096 -0.0256443 -0.0447337 -0.0278759 -0.0966396 -0.0819378 -0.024168 -0.0262508 -0.0263376 -0.0246175 -0.0239477 -0.0243543 -0.0211983 -0.0238972 -0.0236969 -0.025466 -0.0233103 -0.0242704 0.0591164 0.133259 0.106564 0.109047 -33.9416 -33.9416 0.119017 0.0977325 0.0987167 0.101893 0.103859 0.101138 0.103745 0.101269 0.0261688 -0.0250072 -33.9416 -0.0257568 -0.0305901 -0.0245819 -0.0230942 -0.0318813 -0.0238393 -0.026207 -0.0190105 -0.0206045 -0.0232086 -0.00768661 0.100667 0.103865 0.102496 0.101474 0.102028 0.101162 0.104586 0.148544 0.147535 0.149343 0.149099 0.147509 0.146212 0.0877469 -0.0203266 -0.0186017 -0.0213432 -0.0189654 -0.0182673 -0.0188815 -0.0185595 -0.0207469 -0.0182991 -0.0194826 -0.0187941 -0.0200844 -0.0182381 -0.0183783 -0.0197163 -0.0166194 -0.0156469 -0.0182829 -0.0191936 -0.0155258 -0.0198784 -0.0163765 0.184521 0.170937 0.171192 0.321983 0.422825 0.254737 0.148262 -33.9416 -33.9416 -33.9416 0.139523 -33.9416 -33.9416 0.120856 -0.021946 -0.0215321 -0.0215893 -0.0897382 -0.022397 -0.0192413 -0.0223846 -0.0194028 -0.0184879 -0.150353 -0.0212936 -0.0201009 -0.0186462 -33.9416 -33.9416 -33.9416 0.419037 0.334114 0.426422 0.265009 -33.9416 0.191926 -33.9416 -33.9416 -33.9416 -33.9416 0.0650533 -0.0208906 -0.0246792 -0.020792 -0.0215925 -0.0934914 -0.0223808 -0.0207329 -0.0219936 -0.0195389 -0.0207977 -0.0210444 -0.020401 -0.0201511 -0.0215162 -0.0224215 -0.0205854 -0.0198135 -0.0208321 -0.0198186 -0.0187702 -0.020237 -0.0207462 0.0898628 -33.9416 -33.9416 -33.9416 0.229036 0.20755 0.107527 0.157776 0.19088 -33.9416 -33.9416 -33.9416 -33.9416 0.0693932 -0.015543 -0.0158291 -0.0145404 -0.0165723 -0.0153732 -0.0145512 -0.044501 -0.0144463 -0.0140085 -0.0137227 -0.0121822 -0.0127754 -0.0107689 -33.9416 -33.9416 0.400257 0.423557 0.449852 0.436829 0.317673 -33.9416 -33.9416 0.494467 -33.9416 -33.9416 -33.9416 0.0504837
-33.9416 -33.9416 0.129547 0.196775 0.210732 0.0742378 0.0793304 0.0772915 0.0811907 0.0798693 0.082887 0.0796099 0.0780659 -0.0348269 -0.0359726 -0.0376244 -0.0363989 -0.0348787 -0.0360819 -0.0376205 -0.0360088 -0.0341244 -0.0363998 -0.035532 -0.0343424 0.0431131 0.0858545 0.088356 0.0848274 0.0874834 0.0853958 0.0848951 0.0974464 0.478432 0.473 0.265772 0.158491 0.160459 0.195065 0.12738 -0.0325069 -0.0310116 -0.0318241 -0.0308634 -0.0304349 -0.0300039 -0.0293798 -0.0296106 -0.0304184 -0.0295448 -0.029192 -0.0297279 -0.0308552 -0.0297648 -0.0302048 -0.0330734 -0.0282478 -0.0299301 -0.0294361 -0.0267038 -0.0275679 0.153399 0.239266 -33.9416 -33.9416 -33.9416 -33.9416 0.272305 0.133875 0.0895653 -33.9416 -33.9416 -33.9416 -33.9416 -33.9416 0.0803413 -0.0277176 -0.0291386 -0.0272303 -0.0279818 -0.0293674 -0.028361 -0.028904 -0.0286503 -0.0268453 -0.0281944 -0.0281868 -0.0298182 0.0293713 0.354954 0.341574 0.239782 -33.9416 0.198593 -33.9416 0.0901012 -33.9416 0.198725 0.204573 0.175228 0.224937 0.15963 0.110957 -0.0232067 -0.0257349 -0.0247078 -0.0261485 -0.0257988 -0.0407321 -0.0244236 -0.0869389 -0.0822029 -0.0248375 -0.0251112 -0.0238622 -0.0253627 -0.024676 -0.0250721 -0.0230471 -0.0245266 -0.0234985 -0.024477 -0.024498 -0.023571 0.0172399 0.110945 -33.9416 0.11924 -33.9416 -33.9416 0.11306 0.0814667 0.103362 0.103831 0.100802 0.101416 0.102192 0.103058 0.0574036 -0.0220108 -0.0239544 -0.0249939 -0.0216351 -0.0222969 -0.0235469 -0.0238164 -0.0238139 -0.021719 -0.0250835 -0.0231851 -0.023276 -0.010334 0.100722 0.100896 0.0996113 0.102164 0.101765 0.1032 0.107174 0.134416 0.14973 0.151287 0.151126 0.150336 0.149113 0.106059 -0.0192394 -0.0185604 -0.0207443 -0.0189905 -0.0185699 -0.0197496 -0.0180416 -0.019399 -0.020072 -0.0180232 -0.0175419 -0.0189298 -0.0189981 -0.0181897 -0.0179138 -0.0153758 -0.014082 -0.01688 -0.0177069 -0.0169783 -0.0184237 -0.0160942 -33.9416 0.355637 -33.9416 0.374002 0.416872 -33.9416 0.103975 -33.9416 -33.9416 -33.9416 0.137115 -33.9416 -33.9416 0.13759 -0.0188675 -0.0232315 -0.0195484 -0.0526644 -0.0200322 -0.0190153 -0.017889 -0.0192083 -0.0177905 -0.149105 -0.019165 -0.0182126 -0.0193748 -33.9416 0.457689 0.50864 0.419178 0.510703 0.446911 0.352742 0.514257 0.381403 -33.9416 0.244036 -33.9416 -33.9416 0.0691462 -0.020902 -0.0201578 -0.0205173 -0.0900406 -0.0193748 -0.0224714 -0.0222994 -0.020649 -0.0215302 -0.017484 -0.0187136 -0.0206439 -0.02071 -0.0211411 -0.0206146 -0.019736 -0.0205402 -0.0176563 -0.0173225 -0.01776 -0.0168304 -0.0185223 0.0865898 -33.9416 -33.9416 -33.9416 0.134102 -33.9416 0.201365 -33.9416 0.271603 -33.9416 -33.9416 -33.9416 -33.9416 0.150809 -0.0136375 -0.014473 -0.0148077 -0.0141077 -0.0152931 -0.0124035 -0.0451813 -0.0139732 -0.0136108 -0.0120214 -0.0130463 -0.0136134 -0.00974464 -33.9416 -33.9416 0.462577 0.433285 0.479898 0.46479 0.261548 0.537473 -33.9416 0.468182 -33.9416 -33.9416 0.39291 0.121271
-33.9416 -33.9416 -33.9416 -33.9416 -33.9416 0.0670795 0.0819702 0.0795431 0.0788679 0.0802879 0.0815563 0.078619 0.086319 -0.0359968 -0.0362425 -0.0364876 -0.0344753 -0.0345268 -0.03567 -0.036272 -0.0335979 -0.0361338 -0.03368 -0.0335197 -0.0353584 0.0415866 0.0849126 0.0866575 0.0853119 0.0855331 0.0869341 0.0862999 0.0991338 -33.9416 -33.9416 -33.9416 -33.9416 -33.9416 0.238577 0.0734965 -0.0307897 -0.0309048 -0.029878 -0.0293274 -0.0302671 -0.0309868 -0.0319227 -0.0313644 -0.029356 -0.0303917 -0.0293121 -0.0293172 -0.0275021 -0.0279719 -0.0295315 -0.0282183 -0.028697 -0.0279427 -0.0306702 -0.0276871 -0.0275065 0.105075 0.240579 -33.9416 -33.9416 -33.9416 -33.9416 -33.9416 0.12117 0.0930939 -33.9416 -33.9416 -33.9416 -33.9416 -33.9416 0.0277392 -0.0285511 -0.0291748 -0.0275879 -0.0258045 -0.0283947 -0.0276718 -0.0285149 -0.0276613 -0.0283324 -0.0257759 -0.0255674 -0.0254469 0.033762 0.384315 0.357603 0.249209 -33.9416 -33.9416 -33.9416 0.0952034 -33.9416 -33.9416 -33.9416 -33.9416 -33.9416 -33.9416 0.112183 -0.0250626 -0.0258579 -0.0253868 -0.0228825 -0.0248232 -0.0471725 -0.0262947 -0.0905447 -0.0797968 -0.0253592 -0.0260143 -0.0244395 -0.0249357 -0.0249761 -0.0232608 -0.0251757 -0.024752 -0.0220995 -0.0250616 -0.0242777 -0.0242434 0.0364838 0.112501 0.113914 -33.9416 -33.9416 -33.9416 -33.9416 0.0807228 0.103569 0.107814 0.104366 0.100031 0.101212 0.10603 0.0416031 -0.0233164 -0.0236034 -0.0237598 -0.0199445 -0.0218684 -0.0241098 -0.025547 -0.022384 -0.0218341 -0.020504 -0.0224508 -0.0229721 -0.00995445 0.0985527 0.100704 0.10014 0.0996736 0.10157 0.103162 0.10456 0.151423 0.147711 0.14772 -33.9416 0.15217 0.150835 0.0597792 -0.0203094 -0.0207443 -0.0179977 -0.0209179 -0.019563 -0.0177898 -0.0213184 -0.0198545 -0.02003 -0.0203425 -0.0190802 -0.0180979 -0.0169055 -0.0170593 -0.017787 -0.0182095 -0.015852 -0.0165873 -0.01686 -0.0149498 -0.0185598 -0.00714874 -33.9416 0.457621 0.40725 0.39579 0.407479 -33.9416 0.106171 -33.9416 -33.9416 -33.9416 0.14925 -33.9416 -33.9416 0.12833 -0.0210431 -0.0187206 -0.0192518 -0.021637 -0.0194778 -0.0225468 -0.0238628 -0.0544624 -0.0170733 -0.14817 -0.0163364 -0.0172758 -0.0162125 -33.9416 0.444157 0.532928 0.444809 0.512525 0.4375 0.383991 0.507725 0.543591 0.516562 0.465801 0.364899 0.431561 0.187121 -0.0173101 -0.0204913 -0.0174255 -0.0663157 -0.0207443 -0.0197538 -0.0207812 -0.0202656 -0.0186297 -0.019268 -0.0189199 -0.0146255 -0.0193968 -0.0180931 -0.0203857 -0.0182139 -0.0158062 -0.0178261 -0.0177663 -0.0155169 -0.0166836 -0.0178108 0.0954189 -33.9416 -33.9416 -33.9416 0.141331 -33.9416 0.105278 -33.9416 -33.9416 -33.9416 -33.9416 -33.9416 -33.9416 0.148415 -0.0147505 -0.0156727 -0.0126902 -0.0134989 -0.0129929 -0.0131149 -0.0139669 -0.0726147 -0.0109015 -0.0122884 -0.0124969 -0.0131493 -0.00671387 -33.9416 -33.9416 0.45012 0.458712 0.431854 0.445127 0.409826 0.514769 -33.9416 0.488019 0.483491 0.469135 0.425285 0.228312
-33.9416 -33.9416 -33.9416 -33.9416 -33.9416 0.0619736 0.081295 0.0792513 0.0798543 0.0807171 0.0772336 0.0811749 0.0855675 -0.0348959 -0.0358248 -0.035773 -0.0353785 -0.0362234 -0.0362625 -0.0357628 -0.0346699 -0.0339003 -0.0338087 -0.0337346 -0.0343081 0.0454165 0.0838648 0.0848732 0.0852267 0.0846272 0.0878325 0.084198 0.0960388 -33.9416 -33.9416 -33.9416 -33.9416 -33.9416 -33.9416 0.0754509 -0.0317841 -0.0281887 -0.0296753 -0.0291621 -0.0273371 -0.0288506 -0.029082 -0.0289408 -0.0291576 -0.030508 -0.0270576 -0.0310555 -0.0310135 -0.0274096 -0.0558252 -0.0283864 -0.0284977 -0.0276051 -0.02878 -0.0275717 -0.0293439 0.15751 0.288288 -33.9416 -33.9416 -33.9416 -33.9416 -33.9416 0.118608 0.0936756 -33.9416 -33.9416 -33.9416 -33.9416 -33.9416 -0.0227489 -0.0289774 -0.0284856 -0.027626 -0.0282974 -0.0286655 -0.0291615 -0.0274951 -0.0277138 -0.027434 -0.0268545 -0.0269918 -0.026619 0.0332394 0.382427 0.355986 0.376591 -33.9416 -33.9416 -33.9416 0.0984116 -33.9416 -33.9416 -33.9416 -33.9416 -33.9416 -33.9416 0.10938 -0.0255089 -0.0265236 -0.023215 -0.024573 -0.0262419 -0.0529378 -0.0264219 -0.0791461 -0.0804653 -0.0250797 -0.0233612 -0.0262928 -0.0251986 -0.0241394 -0.0248413 -0.0244007 -0.0237446 -0.0244398 -0.0205889 -0.0243149 -0.0235729 0.0602201 0.112554 0.113106 -33.9416 0.113598 -33.9416 -33.9416 0.0847378 0.104255 0.105683 0.102539 0.100641 0.10142 0.101164 0.0237961 -0.0269203 -0.0239487 -0.0237846 -0.0225817 -0.0226889 -0.023084 -0.0236483 -0.0232703 -0.0223427 -0.0206985 -0.0237172 -0.0244951 -0.0121346 0.0989265 0.0997925 0.103432 0.100853 0.10051 0.102022 0.1034 0.127539 0.15173 0.147488 0.154808 -33.9416 0.15057 0.0843767 -0.0188236 -0.0186399 -0.0205603 -0.0216618 -0.0187302 -0.0184546 -0.0186481 -0.019193 -0.0201263 -0.0191717 -0.0187149 -0.0174046 -0.0191078 -0.0173454 -0.0174084 -0.0165456 -0.0165968 -0.0187302 -0.0181599 -0.0197334 -0.018528 -0.00502586 -33.9416 0.46993 0.413746 0.400513 0.396085 -33.9416 0.110046 -33.9416 -33.9416 -33.9416 0.141529 -33.9416 -33.9416 0.121108 -0.019043 -0.0198517 -0.0179977 -0.0178404 -0.0172577 -0.0148487 -0.0172834 -0.0183992 -0.0153656 -0.152475 -0.0142059 -0.0155487 -0.0182152 -33.9416 0.468314 0.534586 0.466618 0.516523 0.441361 0.381406 0.498409 0.539841 0.546146 0.535446 0.545269 0.441168 0.286509 -0.0187588 -0.0188611 -0.0195904 -0.066824 -0.0323696 -0.0194499 -0.020579 -0.0259247 -0.0182699 -0.0195599 -0.0201187 -0.0158253 -0.0188573 -0.017498 -0.0200024 -0.0175476 -0.0189069 -0.0174398 -0.0149523 -0.0169792 -0.0146904 -0.0182247 0.105526 -33.9416 -33.9416 -33.9416 0.137915 -33.9416 0.102806 -33.9416 -33.9416 -33.9416 -33.9416 -33.9416 -33.9416 0.160082 -0.0128441 -0.0171928 -0.0127996 -0.0130208 -0.0135517 -0.0111246 -0.0118256 -0.0110245 -0.00845337 -0.0110092 -0.0119438 -0.0110143 0.00341415 -33.9416 -33.9416 0.509274 0.44008 0.42238 0.469316 0.369895 0.534985 -33.9416 0.489458 0.462503 0.483488 0.433414 0.288331
-33.9416 -33.9416 -33.9416 -33.9416 -33.9416 0.0599747 0.0794614 0.0800018 0.0793177 0.0766554 0.0808029 0.0785236 0.0828285 -0.0365982 -0.0345249 -0.0349731 -0.033145 -0.03549 -0.0335388 -0.0356026 -0.0339979 -0.0331516 -0.0346432 -0.0329857 -0.0340106 0.043876 0.0868263 0.0852184 0.0866432 0.0857735 0.0868416 0.0858698 0.0953712 -33.9416 -33.9416 -33.9416 -33.9416 -33.9416 -33.9416 0.0478344 -0.0284843 -0.0289853 -0.0289822 -0.0295741 -0.0271416 -0.0277672 -0.0279331 -0.0289516 -0.0307884 -0.0292041 -0.0287695 -0.0277243 -0.027669 -0.0300509 -0.0830994 -0.026076 -0.0272713 -0.0273155 -0.0283709 -0.0262022 -0.0280952 0.158978 0.199862 -33.9416 -33.9416 -33.9416 -33.9416 -33.9416 0.127501 0.0924492 -33.9416 -33.9416 -33.9416 -33.9416 -33.9416 -0.0274467 -0.0275249 -0.0254612 -0.0275936 -0.0289011 -0.026413 -0.0282574 -0.0282427 -0.028307 -0.0246976 -0.025629 -0.0272026 -0.025561 0.0123914 0.344954 0.337662 0.412498 -33.9416 -33.9416 -33.9416 0.110729 -33.9416 -33.9416 -33.9416 -33.9416 -33.9416 -33.9416 0.111316 -0.0252247 -0.0254745 -0.0245043 -0.0237834 -0.0247574 -0.040053 -0.0247498 -0.103532 -0.0778093 -0.0243969 -0.0234814 -0.0241194 -0.023833 -0.0234604 -0.0222492 -0.0213594 -0.0238419 -0.0218582 -0.0233097 -0.0215975 -0.0252686 0.0171827 0.119211 0.117346 -33.9416 -33.9416 -33.9416 0.113972 0.0819988 0.102705 0.10428 0.105188 0.102577 0.1032 0.105411 0.0450182 -0.0236988 -0.0242977 -0.021925 -0.0218925 -0.0204163 -0.0210533 -0.0253372 -0.0222626 -0.023324 -0.0234413 -0.0226987 -0.0233154 -0.000658035 0.0989825 0.0992937 0.101898 0.101906 0.101994 0.100726 0.103911 0.130604 0.153526 -33.9416 0.15115 -33.9416 0.15316 0.0910912 -0.0212326 -0.0204735 -0.0193418 -0.0201082 -0.0200062 -0.0203905 -0.0197115 -0.0177371 -0.018013 -0.0191116 -0.0166779 -0.018856 -0.0194778 -0.0173759 -0.0188618 -0.018575 -0.0167007 -0.0191778 -0.0185738 -0.0172882 -0.0173899 -0.0028286 -33.9416 0.496291 0.413661 0.390005 0.382899 -33.9416 0.107399 -33.9416 -33.9416 -33.9416 0.140469 -33.9416 -33.9416 0.174081 -0.0172319 -0.0138206 -0.017621 -0.0260515 -0.0186081 -0.0179644 -0.0170784 -0.0148335 -0.0154648 -0.151141 -0.0208168 -0.0179434 -0.0154533 -33.9416 0.448982 0.531073 0.441339 0.514919 0.43889 0.378982 0.491638 0.527031 0.534607 0.494982 0.502097 0.440914 0.285983 -0.0178127 -0.0187654 -0.0194435 -0.103399 -0.0210457 -0.0195656 -0.0168762 -0.0171099 -0.0161514 -0.0154324 -0.0171051 -0.0164757 -0.0176824 -0.0164585 -0.0188828 -0.0177956 -0.0166178 -0.0159378 -0.0126333 -0.0155818 -0.0128708 -0.0183105 0.0973186 -33.9416 -33.9416 -33.9416 0.139174 -33.9416 0.105906 -33.9416 -33.9416 -33.9416 -33.9416 -33.9416 -33.9416 0.140543 -0.0116539 -0.0104179 -0.0130653 -0.0166531 -0.0122261 -0.0126292 -0.0121091 -0.00648117 -0.0338478 -0.0109622 -0.0105896 -0.0100136 -0.00175858 -33.9416 -33.9416 0.5084 0.440285 0.431072 0.430339 0.299109 0.532997 -33.9416 0.486594 0.491055 0.488518 0.429672 0.227649
-33.9416 -33.9416 -33.9416 -33.9416 -33.9416 0.0630054 0.0791578 0.0807476 0.0785723 0.0803957 0.0803995 0.0769062 0.0866585 -0.0356483 -0.0341654 -0.0348523 -0.0383892 -0.0341816 -0.0358543 -0.0343609 -0.033624 -0.0338221 -0.0352325 -0.0324389 -0.0339108 0.0428219 0.0854708 0.0854225 0.0835199 0.0855637 0.0856981 0.085378 0.0962092 -33.9416 -33.9416 -33.9416 -33.9416 -33.9416 -33.9416 0.0500898 -0.0299683 -0.0283073 -0.0268908 -0.0282736 -0.0262289 -0.0273794 -0.027888 -0.0261663 -0.029007 -0.0283623 -0.0281995 -0.0276057 -0.0273113 -0.0277392 -0.0659542 -0.0288248 -0.0255884 -0.027338 -0.0276184 -0.0275021 -0.0256844 0.158597 0.249622 -33.9416 -33.9416 -33.9416 -33.9416 -33.9416 0.124134 0.0961304 -33.9416 -33.9416 -33.9416 -33.9416 -33.9416 -0.018549 -0.0275593 -0.0290362 -0.0270748 -0.0289523 -0.0280437 -0.0255299 -0.0267401 -0.0263596 -0.0250778 -0.0258999 -0.0244751 -0.0255737 0.052283 0.329866 0.323128 0.403051 -33.9416 -33.9416 -33.9416 0.120293 -33.9416 -33.9416 -33.9416 -33.9416 -33.9416 -33.9416 0.110804 -0.0237513 -0.0230446 -0.023365 -0.0240259 -0.0242399 -0.0488701 -0.0271196 -0.124279 -0.0771408 -0.0234928 -0.0269222 -0.0256577 -0.0233841 -0.0242945 -0.0242023 -0.0244166 -0.0216629 -0.0229225 -0.0246124 -0.0241451 -0.0218897 0.0397091 0.111205 0.112801 0.118801 -33.9416 -33.9416 0.112522 0.10067 0.104412 0.103364 0.102599 0.099926 0.104601 0.101888 0.0640818 -0.0243635 -0.0230722 -0.0210018 -0.0215734 -0.021162 -0.0215073 -0.0239016 -0.0235458 -0.0221443 -0.0205154 -0.0218557 -0.0237528 -0.0114784 0.0986996 0.0995741 0.100999 0.100163 0.0987816 0.101644 0.104192 0.134616 0.151772 -33.9416 -33.9416 -33.9416 0.151226 0.0759285 -0.018652 -0.0201365 -0.0181694 -0.019104 -0.0178935 -0.0204163 -0.0204468 -0.0176287 -0.0179558 -0.0185687 -0.0187645 -0.0173807 -0.0186246 -0.0173912 -0.0179424 -0.0178057 -0.0171995 -0.0184908 -0.018163 -0.0187785 -0.0159276 0.00342178 -33.9416 0.464222 0.414492 0.427757 0.399602 -33.9416 0.105158 -33.9416 -33.9416 -33.9416 0.137991 -33.9416 -33.9416 0.156842 -0.0176175 -0.0184797 -0.0147667 -0.0434723 -0.0190754 -0.0177002 -0.017924 -0.0165987 -0.0204067 -0.159189 -0.015667 -0.0152626 -0.0173855 -33.9416 0.441574 0.532093 0.452183 0.512046 0.441334 0.40286 0.467453 0.516678 0.538652 0.511083 0.512719 0.442101 0.286836 -0.0136363 -0.01758 -0.0195313 -0.0186844 -0.0181122 -0.017189 -0.0188694 -0.0174446 -0.0166384 -0.0151243 -0.0121803 -0.014183 -0.0168772 -0.0146351 -0.0173721 -0.0151749 -0.0146294 -0.0159407 -0.0128727 -0.0131588 -0.0148697 -0.0144138 -33.9416 -33.9416 -33.9416 -33.9416 0.143715 -33.9416 0.107731 -33.9416 -33.9416 -33.9416 -33.9416 -33.9416 -33.9416 0.159601 -0.0119715 -0.00938797 -0.0134888 -0.0120449 -0.0114403 -0.0126546 -0.0104968 -0.0114994 -0.00802803 -0.011631 -0.0102291 -0.0105095 -0.00439453 -33.9416 -33.9416 0.517891 0.4327 0.434179 0.445423 0.300296 0.532444 -33.9416 0.483748 0.462892 0.495993 0.43264 0.287362
0.446737 -33.9416 -33.9416 -33.9416 -33.9416 0.0603676 0.0810051 0.0801735 0.0780659 0.0805893 0.0813866 0.0801849 0.0840149 -0.0357428 -0.0341339 -0.0349948 -0.0334568 -0.0319366 -0.0331564 -0.0324771 -0.0334568 -0.0330029 -0.0327578 -0.0329666 -0.0303154 0.0404943 0.0869433 0.0848207 0.0859337 0.0895462 0.0879567 0.0850677 0.0933847 -33.9416 -33.9416 -33.9416 -33.9416 -33.9416 -33.9416 0.0509892 -0.0277468 -0.0283184 -0.0260251 -0.0266075 -0.0269127 -0.0273266 -0.0290502 -0.0261663 -0.0277061 -0.0258169 -0.0268377 -0.0267067 -0.0267954 -0.0269833 -0.0386836 -0.0266514 -0.026269 -0.0285549 -0.0280504 -0.0273848 -0.0281525 0.161236 0.296858 -33.9416 -33.9416 -33.9416 -33.9416 -33.9416 0.132359 0.0945015 -33.9416 -33.9416 -33.9416 -33.9416 -33.9416 -0.00562286 -0.0281553 -0.0265528 -0.027113 -0.0262273 -0.0276833 -0.0280094 -0.0261917 -0.0230093 -0.0282942 -0.025548 -0.0251322 -0.0248947 0.033515 0.334425 0.318193 0.423073 -33.9416 -33.9416 -33.9416 0.111261 -33.9416 -33.9416 -33.9416 -33.9416 -33.9416 -33.9416 0.110614 -0.0253849 -0.0218086 -0.0256004 -0.0256844 -0.0263513 -0.0575294 -0.025423 -0.114938 -0.075037 -0.0249329 -0.0238638 -0.0241842 -0.021773 -0.0232983 -0.0232811 -0.0213623 -0.022274 -0.0230474 -0.0241776 -0.0237414 -0.0209007 0.0614395 0.113775 0.11079 -33.9416 -33.9416 -33.9416 -33.9416 0.0954806 0.104305 0.10479 0.101653 0.100456 0.102191 0.103916 0.0352669 -0.02139 -0.0234127 -0.0200014 -0.0205116 -0.0235014 -0.0189044 -0.0221529 -0.022206 -0.0260773 -0.0199153 -0.0219084 -0.0235567 0.00561714 0.0980396 0.099081 0.101563 0.100234 0.102482 0.102259 0.102186 0.107098 -33.9416 -33.9416 -33.9416 -33.9416 0.153912 0.0829169 -0.020813 -0.0197334 -0.019371 -0.0187283 -0.0184364 -0.020915 -0.0186501 -0.0207539 -0.0191002 -0.0182972 -0.0187861 -0.0182781 -0.0184962 -0.0145597 -0.0174809 -0.014575 -0.0150013 -0.0174751 -0.0191129 -0.0162481 -0.0170555 0.00841141 -33.9416 0.479064 0.413597 0.432013 0.395637 -33.9416 0.108864 -33.9416 -33.9416 -33.9416 0.140993 -33.9416 -33.9416 0.168123 -0.0181974 -0.0149021 -0.0169894 -0.02108 -0.0207596 -0.0157979 -0.0168638 -0.0171051 -0.0536919 -0.156813 -0.0271556 -0.011776 -0.0130157 -33.9416 0.440444 0.532171 0.461754 0.507455 0.444197 0.352663 0.475624 0.517056 0.540054 0.523047 0.506506 0.442013 0.323299 -0.0146039 -0.0144119 -0.058149 -0.0299339 -0.0181948 -0.0180712 -0.014904 -0.019598 -0.0150614 -0.0136986 -0.0160065 -0.0115547 -0.0126724 -0.0140877 -0.0148112 -0.0166988 -0.0118513 -0.0141983 -0.013833 -0.0143967 -0.01275 -0.0108414 -33.9416 -33.9416 -33.9416 -33.9416 0.141718 -33.9416 0.106537 -33.9416 -33.9416 -33.9416 -33.9416 -33.9416 -33.9416 0.138087 -0.0106201 -0.0108948 -0.0124817 -0.0100479 -0.0119982 -0.00896072 -0.00908407 -0.00886917 -0.0293182 -0.00595856 -0.00934505 -0.0103436 0.00413322 -33.9416 -33.9416 0.527061 0.453304 0.448236 0.407038 0.236431 0.539867 0.461624 0.43182 0.487406 0.475592 0.430483 0.22615
-33.9416 -33.9416 -33.9416 -33.9416 -33.9416 0.0651398 0.080101 0.0810979 0.0796804 0.0782642 0.0803976 0.0806185 0.0796986 -0.0322323 -0.0337563 -0.0333843 -0.0365839 -0.0340538 -0.0323474 -0.0329437 -0.0341263 -0.0347061 -0.0331936 -0.0327158 -0.0333586 0.0396926 0.0885124 0.0877819 0.0854263 0.0892782 0.0893161 0.0872548 0.0891864 -33.9416 -33.9416 -33.9416 -33.9416 -33.9416 -33.9416 0.0530853 -0.0280011 -0.0264635 -0.0274124 -0.0259628 -0.0285282 -0.0284716 -0.0267963 -0.0267849 -0.0256666 -0.0259069 -0.0265255 -0.0257158 -0.0270786 -0.0277036 -0.027935 -0.0336332 -0.0281494 -0.0270513 -0.0268354 -0.0269604 -0.0267963 0.160174 0.193673 -33.9416 -33.9416 -33.9416 -33.9416 -33.9416 0.121796 0.0934372 -33.9416 -33.9416 -33.9416 -33.9416 -33.9416 -0.0100174 -0.0267735 -0.0262203 -0.02598 -0.0239573 -0.025979 -0.0262794 -0.0258827 -0.025568 -0.0248756 -0.02384 -0.0246251 -0.0252037 0.0133807 0.34571 0.314836 0.43703 0.388065 -33.9416 -33.9416 0.0942936 -33.9416 -33.9416 -33.9416 -33.9416 -33.9416 -33.9416 0.110803 -0.0254917 -0.0227909 -0.0243543 -0.0228933 -0.023812 -0.0518789 -0.0235558 -0.111037 -0.0741911 -0.0226339 -0.0263596 -0.0247068 -0.0228284 -0.0246785 -0.0240259 -0.0230576 -0.0228564 -0.0239894 -0.0242157 -0.022391 -0.0221996 0.0208295 0.113031 0.111073 -33.9416 -33.9416 -33.9416 -33.9416 0.0970866 0.101493 0.103625 0.103133 0.102321 0.101601 0.105474 0.0502319 -0.0253849 -0.0207481 -0.0223999 -0.0207176 -0.0215429 -0.0227865 -0.0204163 -0.0196699 -0.0212765 -0.0205154 -0.0219491 -0.0232569 0.00566483 0.0979309 0.10079 0.100292 0.101555 0.099844 0.100557 0.102669 0.103416 0.154179 -33.9416 -33.9416 -33.9416 0.153694 0.0945005 -0.0193348 -0.0193644 -0.0206699 -0.0175714 -0.0179405 -0.0191183 -0.0178852 -0.0183115 -0.0176954 -0.0185 -0.0164884 -0.0175829 -0.0181198 -0.0178172 -0.0172682 -0.0155182 -0.0172462 -0.0133686 -0.0195971 -0.0167322 -0.0187759 0.00989151 -33.9416 0.497023 0.415408 0.431038 0.392629 -33.9416 0.102259 -33.9416 -33.9416 -33.9416 0.138355 -33.9416 -33.9416 0.236899 -0.014473 -0.0177193 -0.0160894 -0.0247523 -0.0180868 -0.0164318 -0.0164871 -0.0140915 -0.0686131 -0.153239 -0.0146675 -0.0160103 -0.0139065 -33.9416 0.430836 0.503544 0.42173 0.506208 0.439331 0.372946 0.465364 0.501066 0.513842 0.481642 0.500847 0.437632 0.26271 -0.0137959 -0.0646642 -0.068339 -0.0211716 -0.0129061 -0.0160942 -0.0126076 -0.016263 -0.0129166 -0.0143442 -0.0133133 -0.00798798 -0.0145874 -0.0133603 -0.015742 -0.0108147 -0.0148048 -0.0144424 -0.0114339 -0.0157585 -0.0112762 -0.0125103 -33.9416 -33.9416 -33.9416 -33.9416 0.142273 -33.9416 0.101286 -33.9416 -33.9416 -33.9416 -33.9416 -33.9416 -33.9416 0.156528 -0.00934315 -0.0130501 -0.0104637 -0.00806046 -0.00936508 -0.00952021 -0.0087471 -0.00798607 -0.0335035 -0.0991821 -0.00798798 -0.00906849 -33.9416 -33.9416 -33.9416 0.490646 0.449557 0.441523 0.425443 0.347996 0.534529 0.453733 0.437805 0.458817 0.479377 0.431538 0.285878
-33.9416 -33.9416 -33.9416 -33.9416 -33.9416 0.0652485 0.0828972 0.079834 0.0835762 0.0800323 0.0797628 0.0836169 0.0791092 -0.0338449 -0.032402 -0.0352503 -0.0366287 -0.0332553 -0.0325635 -0.0348825 -0.0336142 -0.0324526 -0.032362 -0.0316722 -0.0319834 0.0274178 0.0891864 0.0871115 0.0853739 0.0867786 0.0881767 0.0876732 0.0924517 -33.9416 -33.9416 -33.9416 -33.9416 -33.9416 -33.9416 0.053997 -0.0272541 -0.0264651 -0.0267801 -0.0261068 -0.0276194 -0.0258764 -0.0276464 -0.0256068 -0.0247637 -0.026015 -0.0273514 -0.0289383 -0.0269604 -0.0263341 -0.0255146 -0.0245756 -0.0273342 -0.0265516 -0.0264759 -0.0257301 -0.0276527 0.162114 0.0959663 -33.9416 -33.9416 -33.9416 -33.9416 -33.9416 0.107195 0.0937958 -33.9416 -33.9416 -33.9416 -33.9416 -33.9416 0 -0.0286331 -0.0266762 -0.0249767 -0.0219364 -0.0253916 -0.0242195 -0.0251961 -0.02458 -0.0231927 -0.0231667 -0.0245387 -0.0263214 0.0529544 0.337345 0.319541 0.403607 0.406876 -33.9416 -33.9416 0.11828 0.138798 -33.9416 -33.9416 0.140644 -33.9416 -33.9416 0.113707 -0.0236273 -0.0228367 -0.0239477 -0.0229416 -0.0228119 -0.0430056 -0.0253296 -0.1223 -0.0555038 -0.0231209 -0.0240211 -0.0243378 -0.022459 -0.0216039 -0.0243174 -0.0238667 -0.0201492 -0.0218862 -0.0238476 -0.0222721 -0.0207253 0.0398445 0.11269 0.111976 -33.9416 -33.9416 -33.9416 -33.9416 0.0868568 0.101624 0.104694 0.103458 0.10269 0.101648 0.104722 0.0681572 -0.0199404 -0.0183287 -0.0204989 -0.0200348 -0.0214272 -0.0220693 -0.0231997 -0.0192966 -0.0200472 -0.0152245 -0.0196737 -0.0194588 0.00254822 0.0967846 0.0983 0.0966253 0.0991249 0.10076 0.0987034 0.102996 0.133525 0.151759 0.150856 -33.9416 0.150663 0.149391 0.0825478 -0.0187569 -0.0190048 -0.0203753 -0.0171204 -0.0192986 -0.0195427 -0.0156021 -0.0187368 -0.0162811 -0.0167872 -0.0168552 -0.0168982 -0.0188573 -0.017629 -0.0163469 -0.0164502 -0.0146475 -0.017128 -0.0143674 -0.0169907 -0.0176868 0.00678253 -33.9416 0.459131 0.414432 0.428078 0.393346 -33.9416 0.108356 -33.9416 -33.9416 -33.9416 0.139843 -33.9416 -33.9416 0.167721 -0.013052 -0.0174751 -0.0142841 -0.0178744 -0.0133333 -0.0138206 -0.0150652 -0.0138741 -0.0153685 -0.144616 -0.014286 -0.027607 -0.0113068 -33.9416 0.442486 0.506844 0.449276 0.495228 0.439348 0.372119 0.456043 0.483589 0.529588 0.492602 0.490134 0.436033 0.32143 -0.0148373 -0.0383053 -0.0145518 -0.0113983 -0.00623512 -0.0154629 -0.0131702 -0.01548 -0.0115786 -0.0134735 -0.0126788 -0.0123692 -0.0131512 -0.0132929 -0.0143051 -0.015995 -0.0111523 -0.0099144 -0.0111694 -0.0131302 -0.0132357 -0.0104465 -33.9416 -33.9416 -33.9416 -33.9416 0.14171 -33.9416 0.1063 -33.9416 -33.9416 -33.9416 -33.9416 -33.9416 -33.9416 0.13812 -0.00790787 -0.00851059 -0.00764847 -0.0121078 -0.00904846 -0.00805791 -0.00637054 -0.00870514 -0.00980759 -0.0935974 -0.008461 -0.00954056 -33.9416 -33.9416 -33.9416 0.466438 0.46653 0.448303 0.423857 0.24422 0.5245 0.448963 0.438694 0.484072 0.477152 0.432896 0.224853
0.0858459 0.092453 0.0931664 0.0838699 0.0858231 0.0755234 0.0897255 0.089461 0.102867 0.101294 0.0956395 0.0899191 0.0919342 -0.0336418 -0.0326805 -0.0363324 -0.0341387 -0.0337162 -0.0347013 -0.0343386 -0.031765 -0.0333681 -0.0324275 -0.0342051 -0.0348663 0.0489597 0.0884527 0.0815392 0.0899124 0.0891094 0.0865173 0.0892181 0.0946026 0.130423 0.128584 0.12818 0.128136 0.127045 0.13118 0.0283241 -0.0276089 -0.0265834 -0.0252419 -0.0271988 -0.0267172 -0.0283937 -0.0263837 -0.0283496 -0.0272741 -0.0250683 -0.0255766 -0.0263583 -0.0270739 -0.0275011 -0.0282545 -0.0269063 -0.0243365 -0.0276518 -0.0261946 -0.0260019 -0.0266368 0.162014 0.10013 0.0984325 0.097744 0.0980746 0.0976944 0.0980949 0.0972691 0.098074 0.114578 0.105329 0.114134 0.115144 0.105732 0.0718435 -0.02598 -0.0266177 -0.0266771 -0.025526 -0.0214729 -0.0264635 -0.0233307 -0.0246258 -0.0240269 -0.0261412 -0.0240602 -0.0245336 0.033329 0.253182 0.213835 0.278874 0.199025 0.0972595 0.0976143 0.107512 0.138681 0.136929 0.126644 0.120394 0.126798 0.139501 0.112088 -0.0232744 -0.0233459 -0.0237592 -0.0234197 -0.0223955 -0.0656128 -0.0237846 -0.130804 -0.088192 -0.0206985 -0.025157 -0.0233383 -0.0215085 -0.0215054 -0.0220973 -0.0213559 -0.0219402 -0.0209322 -0.0217485 -0.0217756 -0.0195707 0.0605418 0.102662 0.104975 0.104822 0.10429 0.106054 0.101116 0.0958567 0.105083 0.103213 0.099453 0.105358 0.101858 0.104516 0.035862 -0.0219472 -0.0168533 -0.0194635 -0.0196025 -0.0206585 -0.019412 -0.0216131 -0.0215537 -0.0212555 -0.0178401 -0.0191936 -0.0198393 0.030838 0.0944176 0.10026 0.0946894 0.0941722 0.0997009 0.0999432 0.0935316 0.113888 0.126514 0.146547 0.148443 0.132439 0.145013 0.0858542 -0.0182368 -0.0188001 -0.0183439 -0.0165071 -0.0165558 -0.0171814 -0.0162659 -0.0182781 -0.0170212 -0.0175753 -0.0174281 -0.0178757 -0.0171382 -0.0144739 -0.0170765 -0.0151958 -0.0155411 -0.0170708 -0.0179596 -0.015337 -0.0172882 0.0303459 0.109737 0.352911 0.259741 0.264623 0.231255 0.102299 0.10686 0.125478 0.138851 0.126054 0.118015 0.106447 0.0992832 0.199806 -0.0156927 -0.0144755 -0.0142927 -0.0423498 -0.0148525 -0.0149508 -0.0136604 -0.0151583 -0.0155411 -0.141335 -0.0126286 -0.0277239 -0.0129776 0.109583 0.293756 0.299575 0.235401 0.332459 0.374157 0.332021 0.302717 0.311872 0.292106 0.28317 0.359512 0.204607 0.257123 -0.013312 -0.0067304 -0.0138435 -0.0125669 -0.0122814 -0.0116529 -0.0115089 -0.00999737 -0.0120595 -0.0100689 -0.0117378 -0.00783157 -0.0112581 -0.0145861 -0.0105686 -0.0116253 -0.0111631 -0.00911713 -0.00894674 -0.0130539 -0.0104879 -0.0113335 0.100583 0.0980835 0.109615 0.103928 0.103455 0.102533 0.110491 0.123482 0.143229 0.131363 0.136251 0.144526 0.131493 0.154776 -0.00808207 -0.00712013 -0.0090243 -0.00581932 -0.0111122 -0.00638072 -0.00694466 -0.00831477 -0.00586192 -0.0128021 -0.00772858 -0.00794792 -33.9416 0.106363 0.108194 0.232427 0.352868 0.280094 0.289307 0.26303 0.270802 0.299402 0.212864 0.325939 0.326248 0.194651 0.282612
0.0879173 0.0853939 0.0851612 0.0761185 0.0785446 0.0710773 0.0782423 0.0839691 0.0745811 0.0695457 0.0760587 0.0787563 0.0776138 -0.0326983 -0.0335007 -0.0343008 -0.0351537 -0.0312328 -0.0319805 -0.0309118 -0.032196 -0.0324631 -0.0305799 -0.0308676 -0.0310326 0.0363585 0.0847664 0.100771 0.0882177 0.081501 0.0907186 0.084837 0.0865116 0.0981627 0.0926113 0.0939455 0.0950012 0.100051 0.100848 0.0681699 -0.0271673 -0.0261116 -0.028039 -0.0286662 -0.0273876 -0.0270653 -0.027792 -0.0273809 -0.0283674 -0.0265007 -0.025466 -0.0274172 -0.0258522 -0.0250072 -0.0250473 -0.0255966 -0.0259183 -0.0242119 -0.0250587 -0.0261288 -0.0262842 0.165062 0.0931943 0.0906563 0.0977389 0.0912514 0.0891609 0.0887642 0.0952937 0.102148 0.0950559 0.0982494 0.0928383 0.0923487 0.100407 0.0610631 -0.0272913 -0.0257835 -0.027277 -0.0252552 -0.0264902 -0.0246086 -0.0255003 -0.0245781 -0.0251439 -0.0255356 -0.0248934 -0.0233625 0.0356636 0.207013 0.208353 0.226864 0.24553 0.0904331 0.0909983 0.0913696 0.0898762 0.0913773 0.0945511 0.102228 0.10008 0.0958773 0.0970058 -0.0211716 -0.0221071 -0.0227203 -0.0227356 -0.0209618 -0.0642576 -0.0254021 -0.127192 -0.0700245 -0.0231066 -0.023777 -0.0247211 -0.0215123 -0.0203985 -0.0200844 -0.0206757 -0.0221672 -0.0222225 -0.0206718 -0.0220159 -0.0217196 0.0210025 0.115866 0.107641 0.10947 0.106621 0.110069 0.0923767 0.107401 0.0936394 0.105481 0.111473 0.0937595 0.106452 0.105316 0.0678457 -0.0197665 -0.0198879 -0.0184186 -0.0191507 -0.0164795 -0.0198619 -0.0205587 -0.0188522 -0.0197716 -0.0200319 -0.0192928 -0.0201111 0.0101051 0.110015 0.109353 0.117908 0.109804 0.0966797 0.0996151 0.108692 0.107277 0.113762 0.107465 0.10844 0.113373 0.107239 0.0740328 -0.0186119 -0.0165863 -0.0186863 -0.0179558 -0.017065 -0.0168559 -0.0184669 -0.0150518 -0.0176077 -0.0166397 -0.0176659 -0.0143194 -0.0177828 -0.0143394 -0.0154324 -0.0138474 -0.0127093 -0.0141497 -0.0149755 -0.01441 -0.0166893 0.0295563 0.0974884 0.344218 0.336468 0.300191 0.237724 -33.9416 0.103165 0.108131 0.0980091 0.0966835 0.111435 0.116766 0.112625 0.150898 -0.0128574 -0.0157089 -0.0132548 -0.0197086 -0.0135937 -0.0132281 -0.0128072 -0.0145938 -0.0120564 -0.141303 -0.0135231 -0.0150986 -0.0112495 0.220081 0.322161 0.447769 0.261227 0.34207 0.352468 0.334315 0.277575 0.349447 0.323902 0.324278 0.339292 0.275091 0.237659 -0.00897217 -0.0124741 -0.0137138 -0.0112543 -0.00943184 -0.00689125 -0.00968552 -0.0100873 -0.00787481 -0.00982666 -0.00808144 -0.00744247 -0.0102679 -0.0096461 -0.0112925 -0.00852203 -0.00913493 -0.00896263 -0.010128 -0.00903988 -0.0101191 -0.00870514 0.102179 -33.9416 0.112118 0.105515 -33.9416 -33.9416 0.110222 0.10265 0.0996323 0.108177 0.11108 -33.9416 0.110703 0.103905 -0.00729752 -0.00670369 -0.00940196 -0.00684738 -0.00776291 -0.00722218 -0.00399017 -0.00687408 0.00331879 -0.00554848 -0.00588608 -0.00721614 -33.9416 0.118805 0.110439 0.473146 0.483294 0.429638 0.349752 0.26704 0.439957 0.226035 0.44516 0.370566 0.451664 0.434738 0.197392
-33.9416 -33.9416 -33.9416 -33.9416 -33.9416 -33.9416 -33.9416 -33.9416 -33.9416 -33.9416 -33.9416 -33.9416 0.0980206 -0.0323133 -0.0328426 -0.0335274 -0.0323029 -0.0304813 -0.0326452 -0.0307846 -0.030735 -0.0336781 -0.0326395 -0.0301914 -0.0307973 0.0413074 -33.9416 -33.9416 -33.9416 -33.9416 -33.9416 -33.9416 -33.9416 -33.9416 -33.9416 -33.9416 -33.9416 -33.9416 -33.9416 0.0492916 -0.0265846 -0.0259895 -0.0252447 -0.0274878 -0.0259199 -0.0272102 -0.0282389 -0.0246239 -0.02683 -0.0279732 -0.0251007 -0.0246925 -0.0237598 -0.0241756 -0.0240564 -0.024641 -0.0238266 -0.0266924 -0.0267582 -0.0250587 -0.0262375 0.110222 -33.9416 -33.9416 -33.9416 -33.9416 -33.9416 -33.9416 -33.9416 -33.9416 -33.9416 -33.9416 -33.9416 -33.9416 -33.9416 0.0585022 -0.0251064 -0.0269985 -0.025732 -0.0229988 -0.0246325 -0.02495 -0.0247526 -0.0214453 -0.0231978 -0.0262833 -0.0246023 -0.0234995 0.03374 0.314957 0.29998 -33.9416 -33.9416 -33.9416 -33.9416 -33.9416 -33.9416 -33.9416 -33.9416 -33.9416 -33.9416 -33.9416 0.0903435 -0.022706 -0.0234184 -0.0223904 -0.0238564 -0.0232964 -0.0826731 -0.027173 -0.127864 -0.0534439 -0.0237007 -0.0225353 -0.0210199 -0.0213718 -0.0201759 -0.021403 -0.0222321 -0.0209703 -0.0219364 -0.0223608 -0.0199938 -0.0200291 0.0449715 0.124076 0.127743 -33.9416 -33.9416 0.133961 -33.9416 -33.9416 -33.9416 -33.9416 -33.9416 -33.9416 -33.9416 -33.9416 0.0415649 -0.0212145 -0.0201578 -0.0206413 -0.020064 -0.0180111 -0.0174561 -0.0185839 -0.0201766 -0.0177364 -0.0176811 -0.0192741 -0.019914 -0.00451088 0.12265 0.133205 -33.9416 0.137024 0.122658 0.129604 0.122627 0.141411 0.123201 -33.9416 0.127607 0.126209 0.14576 0.0918373 -0.0177593 -0.0185909 -0.0183067 -0.0178731 -0.0178776 -0.0164108 -0.0179443 -0.0153923 -0.0177803 -0.0167456 -0.015254 -0.0165367 -0.0161756 -0.015542 -0.0153694 -0.0157178 -0.0131302 -0.0163183 -0.014677 -0.0140305 -0.0144873 0.0346069 -33.9416 -33.9416 0.313614 -33.9416 -33.9416 -33.9416 -33.9416 -33.9416 -33.9416 -33.9416 -33.9416 -33.9416 -33.9416 0.107055 -0.0124722 -0.014876 -0.0109304 -0.0146379 -0.0105604 -0.0107841 -0.0121737 -0.0130463 -0.0125542 -0.138294 -0.0110607 -0.0376536 -0.0143585 0.247349 -33.9416 -33.9416 -33.9416 -33.9416 -33.9416 0.51889 -33.9416 -33.9416 0.498936 0.33556 -33.9416 -33.9416 0.14735 -0.0139103 -0.0115948 -0.0104589 -0.0116596 -0.00879574 -0.0114374 -0.0104065 -0.00945791 -0.00670751 -0.00753021 -0.00760174 -0.00800323 -0.00971731 -0.00733312 -0.0088253 -0.010994 -0.00804901 -0.00785637 -0.00765991 -0.0078036 -0.00924492 -0.00895309 -33.9416 -33.9416 -33.9416 -33.9416 -33.9416 -33.9416 -33.9416 -33.9416 -33.9416 -33.9416 -33.9416 -33.9416 -33.9416 0.124826 -0.00704956 -0.00663853 -0.00716019 -0.00883675 -0.00474167 -0.00482559 -0.00326347 -0.0060463 -0.00294113 -0.00371933 -0.00575256 -0.00397873 -33.9416 -33.9416 -33.9416 0.317604 -33.9416 -33.9416 -33.9416 0.34248 -33.9416 -33.9416 -33.9416 -33.9416 0.301006 -33.9416 0.105134
-33.9416 -33.9416 -33.9416 -33.9416 -33.9416 -33.9416 -33.9416 -33.9416 -33.9416 -33.9416 -33.9416 -33.9416 -33.9416 -0.032032 -0.0312176 -0.0326118 -0.0337887 -0.0324211 -0.0309677 -0.0316696 -0.0325877 -0.0317421 -0.0337086 -0.0306225 -0.0303841 0.0376495 -33.9416 -33.9416 -33.9416 -33.9416 -33.9416 -33.9416 -33.9416 -33.9416 -33.9416 -33.9416 -33.9416 -33.9416 -33.9416 0.0760307 -0.0259876 -0.0269756 -0.0286751 -0.0269699 -0.0269175 -0.0206604 -0.0251897 -0.0259921 -0.0261288 -0.0273981 -0.0264769 -0.0267754 -0.0243492 -0.0254695 -0.0257654 -0.0251795 -0.0254084 -0.0250006 -0.0261507 -0.024457 -0.0258799 0.0313501 0.309429 -33.9416 -33.9416 -33.9416 -33.9416 -33.9416 -33.9416 -33.9416 -33.9416 -33.9416 -33.9416 -33.9416 -33.9416 0.065033 -0.0251379 -0.0255337 -0.0249701 -0.0247669 -0.0220566 -0.025466 -0.0240784 -0.0238667 -0.024559 -0.0229254 -0.0258284 -0.0240593 0.0334568 0.300213 0.332432 0.352892 0.41544 -33.9416 -33.9416 -33.9416 -33.9416 -33.9416 -33.9416 -33.9416 -33.9416 -33.9416 0.0873909 -0.0225868 -0.0224953 -0.0205231 -0.0199852 -0.0221806 -0.0843716 -0.0264149 -0.126314 -0.0862338 -0.0263424 -0.0222511 -0.0225687 -0.0211309 -0.0203381 -0.0227737 -0.0215054 -0.0209859 -0.0196829 -0.02145 -0.0207672 -0.0222486 0.0443935 0.132351 0.207443 -33.9416 0.176918 -33.9416 -33.9416 -33.9416 -33.9416 -33.9416 -33.9416 0.170048 -33.9416 -33.9416 0.0587358 -0.0190296 -0.0207424 -0.0181971 -0.0197411 -0.0197926 -0.0188039 -0.0198765 -0.0196861 -0.0205498 -0.0173855 -0.0180098 -0.0194454 0.00235748 0.151234 0.21772 0.164995 -33.9416 -33.9416 -33.9416 0.134468 0.196045 -33.9416 0.140163 0.152142 -33.9416 0.161682 0.0422554 -0.0172272 -0.0189333 -0.0167427 -0.0167341 -0.0165539 -0.0151091 -0.0164108 -0.0164509 -0.0158224 -0.0167096 -0.0181313 -0.0135994 -0.0163269 -0.0169741 -0.0172224 -0.0143611 -0.0144958 -0.0142727 -0.0156536 -0.0151596 -0.0151863 0.0377312 -33.9416 0.459494 0.409992 0.41268 0.417709 -33.9416 -33.9416 -33.9416 -33.9416 -33.9416 -33.9416 -33.9416 -33.9416 0.106083 -0.0125637 -0.0133553 -0.0133076 -0.0137024 -0.0134989 -0.0121346 -0.0128975 -0.00892067 -0.0124073 -0.138226 -0.0109138 -0.0127401 -0.0127907 -33.9416 0.412308 0.436899 0.422544 0.440798 0.43948 0.477238 0.456081 0.443846 0.475868 0.4536 0.44227 0.459816 0.162861 -0.00983302 -0.00858307 -0.0105457 -0.0104713 -0.010039 -0.0094471 -0.0109634 -0.00810719 -0.00772731 -0.00602055 -0.0111141 -0.00697708 -0.00960064 -0.00981267 -0.00763988 -0.00996399 -0.00962194 -0.00594616 -0.0112419 -0.00661723 -0.00765228 -0.00616455 -33.9416 -33.9416 -33.9416 -33.9416 -33.9416 -33.9416 -33.9416 -33.9416 -33.9416 -33.9416 -33.9416 -33.9416 -33.9416 0.133946 -0.00840759 -0.00751114 -0.004879 -0.00549507 -0.00497723 -0.00688934 -0.00501442 -0.00811005 -0.00650024 -0.0023613 -0.00401942 -0.00429153 -33.9416 -33.9416 -33.9416 0.463367 0.460112 0.462994 0.455025 0.382048 0.397337 0.43711 0.456264 0.456554 0.442526 0.454 0.220548
-33.9416 -33.9416 -33.9416 -33.9416 -33.9416 -33.9416 -33.9416 -33.9416 -33.9416 -33.9416 -33.9416 -33.9416 -33.9416 -0.0320269 -0.0334663 -0.0307083 -0.0298824 -0.0313492 -0.0307541 -0.031127 -0.031264 -0.032011 -0.0320015 -0.0309194 -0.0297384 0.0238792 -33.9416 -33.9416 -33.9416 -33.9416 -33.9416 -33.9416 -33.9416 -33.9416 -33.9416 -33.9416 -33.9416 -33.9416 -33.9416 0.109648 -0.0264931 -0.0273371 -0.0264187 -0.0269299 -0.0271873 -0.0275345 -0.0270357 -0.0242615 -0.026432 -0.0247726 -0.0258932 -0.0259552 -0.0249519 -0.0250473 -0.0257988 -0.026343 -0.0235643 -0.0254326 -0.0247669 -0.0253735 -0.0254469 0.0324306 0.192394 -33.9416 -33.9416 -33.9416 -33.9416 -33.9416 -33.9416 -33.9416 -33.9416 -33.9416 -33.9416 -33.9416 -33.9416 0.0583477 -0.0264482 -0.0265217 -0.0254898 -0.0253677 -0.0236721 -0.0239201 -0.0245886 -0.0288048 -0.0226657 -0.0239048 -0.0235672 -0.0254224 0.0330276 0.331867 0.344855 0.342878 0.428459 -33.9416 0.178658 0.174171 -33.9416 0.200939 0.171543 -33.9416 0.139317 0.172901 0.106098 -0.0225372 -0.0224476 -0.0228462 -0.0219589 -0.0217756 -0.0332387 -0.0232716 -0.127613 -0.0675907 -0.0229635 -0.0207834 -0.0227528 -0.0198708 -0.0217876 -0.0227966 -0.0214767 -0.0222626 -0.0202579 -0.0206013 -0.0231133 -0.0216535 0.0455532 -33.9416 -33.9416 -33.9416 -33.9416 -33.9416 -33.9416 -33.9416 -33.9416 -33.9416 -33.9416 -33.9416 -33.9416 -33.9416 0.0749995 -0.0224619 -0.0188656 -0.0168711 -0.0179507 -0.0210094 -0.017458 -0.0208995 -0.0209017 -0.0163651 -0.017417 -0.0182177 -0.0184383 -0.0059948 -33.9416 -33.9416 -33.9416 -33.9416 -33.9416 -33.9416 -33.9416 -33.9416 -33.9416 -33.9416 -33.9416 -33.9416 -33.9416 0.116581 -0.0154305 -0.0185827 -0.015419 -0.0189762 -0.0169729 -0.0153847 -0.0152397 -0.0137691 -0.016552 -0.0156275 -0.014657 -0.0153379 -0.0167351 -0.0155055 -0.0150213 -0.0170784 -0.0142689 -0.0138922 -0.0145721 -0.0141582 -0.0157407 0.031662 -33.9416 0.443904 0.412519 0.428584 0.428741 -33.9416 -33.9416 -33.9416 -33.9416 -33.9416 -33.9416 -33.9416 -33.9416 0.108611 -0.00741196 -0.0119905 -0.0114956 -0.0130024 -0.0113373 -0.0115051 -0.0137053 -0.00975037 -0.0135162 -0.139269 -0.0118027 -0.0112324 -0.00849533 -33.9416 0.438826 0.443342 0.43128 0.462313 0.435596 0.464994 0.465458 0.450205 0.466387 0.455181 0.436703 0.462681 0.216914 -0.00835927 -0.00914383 -0.00944042 -0.00968297 -0.00800705 -0.0100164 -0.00715256 -0.00819588 -0.0053997 -0.00642776 -0.00817394 -0.00602341 -0.0084095 -0.00640488 -0.00895818 -0.0078125 -0.00703049 -0.00658798 -0.00511742 -0.00647863 -0.00686264 -0.00497055 -33.9416 -33.9416 -33.9416 -33.9416 -33.9416 -33.9416 -33.9416 -33.9416 -33.9416 -33.9416 -33.9416 -33.9416 -33.9416 0.125771 -0.00704575 -0.00424194 -0.00325489 -0.00350571 -0.00313568 -0.0040226 -0.00445938 -0.00388145 -0.00255585 -0.0019455 -0.00102997 -0.00253423 -33.9416 -33.9416 -33.9416 0.48584 0.452419 0.461174 0.480179 0.344809 -33.9416 0.439863 0.467678 0.455059 0.456009 0.462767 0.246627
-33.9416 -33.9416 -33.9416 -33.9416 -33.9416 -33.9416 -33.9416 -33.9416 -33.9416 -33.9416 -33.9416 -33.9416 -33.9416 -0.0314178 -0.032711 -0.033371 -0.0311756 -0.0319347 -0.0307093 -0.0343208 -0.0307732 -0.0326128 -0.031024 -0.0287069 -0.0298481 0.0482002 -33.9416 -33.9416 -33.9416 -33.9416 -33.9416 -33.9416 -33.9416 -33.9416 -33.9416 -33.9416 -33.9416 -33.9416 0.255619 0.0697136 -0.029686 -0.0243645 -0.0247211 -0.02808 -0.0263548 -0.0251846 -0.0265923 -0.0256348 -0.0246785 -0.0276146 -0.0255318 -0.0268497 -0.0256983 -0.0223074 -0.0259924 -0.0261262 -0.0263074 -0.0267296 -0.0245619 -0.0242214 -0.0255661 0.033577 0.169735 -33.9416 -33.9416 -33.9416 -33.9416 -33.9416 -33.9416 -33.9416 -33.9416 -33.9416 -33.9416 -33.9416 -33.9416 0.0759583 -0.0252132 -0.0228367 -0.0242596 -0.0272179 -0.0258611 -0.023243 -0.0226469 -0.0224218 -0.0235144 -0.0240183 -0.0252571 -0.0230541 0.033391 0.327827 0.344671 0.325197 0.38759 0.285183 -33.9416 -33.9416 0.254635 0.222572 -33.9416 -33.9416 -33.9416 -33.9416 0.0938911 -0.0213804 -0.0204277 -0.0237532 -0.0210091 -0.0238202 -0.0226517 -0.0222082 -0.129785 -0.0516879 -0.0213432 -0.0234261 -0.0217505 -0.0201979 -0.0219765 -0.0233498 -0.0224182 -0.0228128 -0.0215549 -0.022295 -0.0211926 -0.0204411 0.0449657 -33.9416 -33.9416 -33.9416 -33.9416 -33.9416 -33.9416 -33.9416 -33.9416 -33.9416 -33.9416 -33.9416 -33.9416 -33.9416 0.0388934 -0.0194035 -0.020319 -0.019296 -0.0188904 -0.0199194 -0.019811 -0.0190315 -0.0189902 -0.0144043 -0.0180759 -0.0189565 -0.0187807 -0.000629425 0.177778 -33.9416 0.22237 0.216484 0.196327 0.18932 0.2348 0.240641 0.194771 0.186413 0.243944 1.22888 1.46436 1.21269 1.37076 0.814493 -0.0157557 -0.0150309 -0.0153987 -0.0159009 -0.0143051 -0.0129967 -0.0141134 -0.0140305 -0.0131976 -0.0144825 -0.0131111 -0.0133829 -0.0108299 -0.0132294 -0.0115948 -0.0130367 -0.0128632 -0.0136998 -0.0133963 0.0288696 -33.9416 0.479069 0.412031 0.426809 0.448978 -33.9416 -33.9416 -33.9416 -33.9416 -33.9416 -33.9416 -33.9416 -33.9416 0.108757 -0.00973129 -0.012324 -0.0112667 -0.0106335 -0.0122242 -0.0105677 -0.0103442 -0.0145836 -0.0346158 -0.13865 -0.0125313 -0.00997543 -0.00891304 -33.9416 0.441732 0.451031 0.441376 0.457494 0.450137 0.475044 0.460438 0.457201 0.462334 0.484126 0.446155 0.469748 0.219051 -0.00847499 -0.00777562 -0.0102463 -0.010273 -0.00730515 -0.00787163 -0.003582 -0.00763988 -0.00627327 -0.00587273 -0.00757472 -0.00627136 -0.00722122 -0.0067215 -0.00341924 -0.00631714 -0.00608063 -0.00452042 -0.00631332 -0.00540034 -0.00508753 -0.00760078 0.110264 -33.9416 -33.9416 0.135017 -33.9416 -33.9416 -33.9416 -33.9416 -33.9416 -33.9416 0.127247 -33.9416 -33.9416 0.143141 -0.00441742 -0.0049572 -0.00232188 -0.00150299 -0.00177574 -0.00385475 -0.0040493 -0.00223668 -0.00197347 -0.00202751 -0.000928879 -0.00240835 -33.9416 0.117538 -33.9416 0.492695 0.46913 0.468273 0.476563 0.337482 -33.9416 0.275032 0.496645 0.38783 0.465744 0.478014 0.187225
0.692252 0.158052 0.477091 0.753178 0.408955 0.612324 0.628561 0.758941 0.317835 0.153864 0.179233 0.20249 0.0332222 -0.0335064 -0.0332731 -0.0340137 -0.0334447 -0.0315704 -0.0318508 -0.0328878 -0.0322285 -0.0331154 -0.0320797 -0.029952 -0.0309896 0.120094 0.133741 0.514887 0.638917 0.344791 0.466729 0.532081 0.553702 0.569688 0.703415 0.644772 0.668182 0.223871 0.126675 0.0547803 -0.0286764 -0.0272436 -0.0275307 -0.0259819 -0.0278873 -0.025561 -0.0256786 -0.0253143 -0.0287733 -0.0263697 -0.0263548 -0.0268116 -0.0254917 -0.0277405 -0.0263348 -0.0270271 -0.0245145 -0.0275602 -0.0261869 -0.0249624 -0.0248861 0.0212021 0.161811 0.148248 0.20568 0.147838 0.172245 0.161572 0.175496 0.221208 0.207923 0.210602 0.20892 0.238269 0.177189 0.134064 -0.0234289 -0.026269 -0.0246782 -0.023612 -0.0251656 -0.023283 -0.0265522 -0.0256195 -0.0253582 -0.0258802 -0.0240355 -0.024114 0.0136536 0.190978 0.185726 0.168026 0.19856 0.176258 0.183091 0.173957 0.190404 0.18792 0.184882 0.205909 0.187274 0.195288 0.106431 -0.0205892 -0.0265522 -0.0229969 -0.0236006 -0.0223923 -0.0206985 -0.0244484 -0.132902 -0.0737101 -0.0207348 -0.0232105 -0.0217113 -0.0228564 -0.0199178 -0.0231285 -0.0219154 -0.0207087 -0.0214338 -0.0206642 -0.0231171 -0.0216503 0.0224686 0.238036 0.380581 0.34439 0.316815 0.348796 0.327715 0.298145 0.300362 0.302586 0.343031 0.303697 0.336133 0.35575 0.370879 -0.0195866 -0.0189104 -0.0170889 -0.0194349 -0.021616 -0.01968 -0.0175107 -0.0177345 -0.0181541 -0.0172234 -0.0166066 -0.0193901 -0.01721 0.165917 0.329341 0.363585 0.315388 0.357601 0.316104 0.317227 0.283493 0.36351 0.287505 0.353976 0.432894 0.702558 0.53267 0.95105 0.396758 -0.0119667 -0.016325 -0.0149469 -0.0150146 -0.0151243 -0.0138063 -0.014533 -0.0140514 -0.0150185 -0.0155315 -0.0111071 -0.0112553 -0.0143394 -0.0117175 -0.00995064 -0.0114651 -0.0120049 -0.0135365 -0.0125834 0.00965195 0.0596352 0.229752 0.20978 0.209959 0.184144 0.204023 0.22082 0.208035 0.195489 0.205598 0.229138 0.195476 0.172826 0.241218 0.092276 -0.0125961 -0.0125834 -0.0103989 -0.00993061 -0.0113697 -0.0112801 -0.00973892 -0.0145105 -0.139036 -0.00720978 -0.00792313 -0.072361 0.0900087 0.229664 0.149943 0.212733 0.233244 0.233321 0.238211 0.141168 0.222509 0.257161 0.229841 0.2285 0.215275 0.231121 -0.010601 -0.00597 -0.00786495 -0.00868988 -0.00818062 -0.00691986 -0.00302887 -0.00819778 -0.00588608 -0.00358327 -0.00643158 -0.00476329 -0.00539017 -0.00640774 -0.00550842 -0.00368309 -0.00393009 -0.00292778 -0.00512123 -0.0044136 -0.0070432 -0.00602341 0.0347244 0.123823 0.226052 0.209661 0.191291 0.228772 0.142109 0.278253 0.137571 0.217203 0.214316 0.213584 0.183057 0.169715 0.170523 -0.0035181 -0.0033226 -0.00173187 -0.00169373 -0.00302124 -0.000968933 -0.0018425 -0.00164286 -0.000827789 -0.00292301 -0.00310516 -0.00704193 0.0803436 0.119241 0.212807 0.243264 0.236435 0.238845 0.028375 0.211295 0.152636 0.3224 0.184583 0.282755 0.199039 0.178041
0.529892 0.170278 0.72139 0.365614 0.532099 0.674126 0.689145 0.524654 0.435374 0.214195 0.177148 -0.0282841 -0.0303809 -0.0309143 -0.0287743 -0.0304464 -0.0309067 -0.0293169 -0.0308561 -0.0320193 -0.0298939 -0.0318909 -0.0301456 -0.0290845 -0.0305145 0.141656 0.235316 0.225157 0.77921 0.388475 0.43396 0.731833 0.702126 0.421431 0.374959 0.54203 0.0780487 0.150763 0.14839 -0.0267741 -0.0266857 -0.0260983 -0.0281115 -0.0230103 -0.0250778 -0.0263367 -0.0254733 -0.0264905 -0.0262737 -0.0265783 -0.0265096 -0.0269712 -0.028204 -0.0259412 -0.027235 -0.026926 -0.0255699 -0.0260105 -0.0239258 -0.0251033 -0.0267309 -0.0256945 0.142692 0.15974 0.14349 0.225539 0.0775978 0.101288 0.138613 0.142336 0.140134 0.142351 0.143079 0.18971 0.0748146 0.0855694 -0.0233892 -0.0235491 -0.0225735 -0.0220709 -0.0248775 -0.0249494 -0.0258814 -0.0253995 -0.023703 -0.0225105 -0.0246181 -0.0247358 -0.0257301 -0.026454 -0.0252867 -0.0245924 -0.0203234 -0.0240917 0.10888 0.0789852 -0.0202497 -0.0227572 0.129011 0.092638 0.130409 0.0782402 0.0627548 -0.0223147 -0.0223074 -0.0217524 -0.0215651 -0.0226657 -0.021678 -0.0218611 -0.126839 -0.0510546 -0.0213985 -0.0224431 -0.0187321 -0.0233892 -0.0216929 -0.0216227 -0.0206165 -0.0219866 -0.0193996 -0.0210152 -0.0208454 -0.019702 -0.020134 -0.021342 0.200646 -0.0217962 0.264871 -0.0198339 -0.021677 0.2669 0.46216 0.192774 0.229362 0.445021 -0.0196775 1.93576 1.3059 1.17551 0.531197 0.902184 -0.0183996 -0.0175972 -0.0186405 -0.0175476 -0.0168083 -0.0150089 -0.0172246 -0.0155958 -0.0156988 -0.0190611 -0.0153437 0.207702 0.160008 0.164586 0.407461 0.282038 0.2788 0.271709 -0.0156832 -0.0161829 0.21911 0.161537 1.2726 0.801966 0.996876 0.659784 0.776324 2.57671 2.26325 1.15952 -0.015461 -0.00953865 -0.0150261 -0.0130291 -0.010829 -0.0132446 -0.0124563 -0.0124664 -0.0102291 -0.0116831 -0.0097208 -0.0133839 -0.00860596 -0.0126762 -0.0115051 -0.013518 -0.00884501 0.12086 -0.0120564 -0.0118198 -0.00833511 0.205151 0.618597 0.662324 0.950296 1.0486 1.24714 1.37677 1.68022 1.99091 1.91861 2.07725 2.17013 2.26245 2.45597 2.25023 2.39895 2.78747 2.02862 1.35123 -0.00682831 -0.00835546 -0.0132599 -0.00775719 -0.00815296 0.152512 -0.00485738 -0.00960795 -0.00749334 -0.00885646 0.226516 -0.00564067 -0.00751114 0.157305 -0.00727177 0.0884399 -0.00842571 -0.0095768 -0.00797272 -0.00595665 -0.00789388 -0.00628471 -0.00448354 -0.00374985 -0.00494099 -0.00546265 -0.00535838 -0.00389099 -0.00329018 -0.00468445 -0.00490189 -0.00462532 -0.00411606 -0.00034523 -0.00507832 -0.00512314 -0.00248337 -0.00418091 -0.00530624 -0.00366211 -0.00232124 0.0999626 0.372302 0.724047 0.795206 0.749434 1.02658 1.14114 1.17311 1.34944 1.38699 1.69151 1.62301 1.91179 2.0543 2.10247 2.21996 2.08585 2.14645 2.0865 2.07108 2.24158 2.3362 2.52451 2.33438 2.36685 1.29349 1.11096 0.168064 0.184735 0.477527 0.226279 0.258743 -0.00017039 0.431272 0.615264 0.689629 1.51026 0.620972 1.0722
-0.0308781 -0.0323467 -0.0319881 -0.0328369 -0.0314951 -0.0323305 -0.0323334 -0.0306797 -0.0333659 -0.0307207 -0.0310478 -0.0313187 -0.0311066 -0.0308704 -0.0299911 -0.0310455 -0.0314655 -0.0294466 -0.0323118 -0.0301615 -0.0300961 -0.0286083 -0.0286808 -0.0289803 -0.0296186 -0.0300312 -0.0302289 -0.0274696 -0.0293274 -0.0300179 -0.0295506 -0.0288754 -0.0274363 -0.0296659 -0.0230656 -0.0275822 -0.028738 -0.0266101 -0.0260744 -0.0260668 -0.0234776 -0.029213 -0.027586 -0.027757 -0.0248814 -0.0242653 -0.0259984 -0.0258547 -0.0246468 -0.024971 -0.0258865 -0.0243861 -0.0280809 -0.0272417 -0.0263319 -0.0248248 -0.023201 -0.0241489 -0.0242729 -0.0251935 -0.0259285 -0.0246477 -0.0235767 -0.0241992 -0.0243594 -0.0243473 -0.0224743 -0.0254962 -0.0244102 -0.0248117 -0.0257568 -0.0245349 -0.0237757 -0.0223541 -0.0230112 -0.0259724 -0.0233014 -0.0215187 -0.0226879 -0.0225735 -0.0225315 -0.0234055 -0.025507 -0.0242615 -0.023667 -0.0228491 -0.0236158 -0.0219669 -0.0227461 -0.0254771 -0.0365257 -0.0216122 -0.0225436 -0.0220585 -0.0212688 -0.0211067 -0.0222397 -0.0192629 -0.0215937 -0.0206442 -0.0206922 -0.0211182 -0.0215263 -0.021946 -0.0211554 -0.0206022 -0.0218277 -0.0238558 -0.0220973 -0.0226917 -0.134716 -0.073185 -0.0209516 -0.0187416 -0.0208902 -0.0202166 -0.0200863 -0.0221748 -0.0198746 -0.0202026 -0.0203762 -0.0188141 -0.0186907 -0.0202875 -0.0217733 -0.0214367 1.09994 1.97293 2.16997 2.20684 2.16816 2.2177 2.19247 2.23552 1.94353 2.12717 2.24991 2.02541 1.91773 1.92411 1.89717 -0.0185595 -0.0150019 -0.0157967 -0.0196279 -0.0173807 -0.0161263 -0.0114632 -0.0151304 -0.0157502 -0.0159121 -0.0171598 -0.0141716 -0.0168165 0.650076 0.671594 0.978864 1.80758 1.88853 2.05764 2.372 2.49147 2.31928 2.01359 1.65594 1.79813 2.21247 2.02482 2.28665 2.25954 -0.0134745 -0.0138588 -0.0137348 -0.0113049 -0.0133781 -0.0115102 -0.0123482 -0.0105724 -0.0114145 -0.0120087 -0.00794315 -0.0131696 -0.0120392 -0.010622 -0.00966072 -0.0117416 -0.0106532 -0.0105451 -0.0117302 -0.00982285 -0.0119896 -0.00913715 -0.00830205 -0.0106487 -0.00971031 -0.0110652 -0.00939751 -0.00894165 -0.0113831 -0.011659 -0.00922203 -0.0111675 -0.00889778 -0.0110868 -0.00891781 -0.00915718 -0.00868225 -0.00976308 -0.00865936 -0.00809097 -0.0146961 -0.129622 -0.00763702 -0.00594902 -0.0087649 -0.00791073 -0.00752831 -0.00952339 -0.00729752 -0.00690079 -0.00624084 -0.00798416 -0.00637531 -0.00708516 -0.00775909 -0.00587082 -0.00847435 -0.00622686 -0.0080328 -0.00440216 -0.010603 -0.00548553 -0.00556946 -0.00771332 -0.00576528 -0.00557899 -0.00534248 -0.00509389 -0.00492764 -0.00205612 -0.00384712 -0.00284576 -0.00187683 -0.00255839 -0.00351588 -0.00273895 0.000259399 -0.00296783 -0.00291824 -0.00412496 -0.00508881 -0.00391006 -0.00335789 -0.00266457 -0.00538635 -0.00204976 -0.00250053 -0.00261943 -0.00115204 -0.00220108 -0.00203514 0.000621796 -0.00446828 -0.00270653 -0.0027771 -0.00288582 -0.00239372 0.000136058 0.000663757 -0.000717163 -0.00124741 -0.00176239 -0.00220235 -0.000642776 -0.00287628 0.000200272 -0.00271034 -0.00112724 -0.00137965 -0.00330353 -0.0019083 0.000703176 0.000968933 0.000230789 0.00256348 -9.91821e-005 0.00182343 0.00535965 0.0024662 -0.00152969 0.00143433 0.00298945
-0.0313778 -0.0308819 -0.0309436 -0.0300077 -0.0312824 -0.0311832 -0.0322218 -0.0304804 -0.0307655 -0.03092 -0.0295881 -0.0292072 -0.0292257 -0.0290871 -0.0286865 -0.0280123 -0.0277901 -0.0263176 -0.0304823 -0.0317179 -0.0288696 -0.0275354 -0.0285549 -0.0284691 -0.0295219 -0.0281734 -0.027071 -0.0273352 -0.0284447 -0.0266514 -0.0282249 -0.0266018 -0.0277774 -0.0260063 -0.0273609 -0.0249996 -0.0260792 -0.0254555 -0.0255547 -0.0249958 -0.0258789 -0.0257683 -0.0249338 -0.0231056 -0.0264225 -0.0243594 -0.0255518 -0.0238791 -0.0252355 -0.0215721 -0.0245581 -0.0249357 -0.0232258 -0.0271912 -0.026076 -0.0247292 -0.0241483 -0.0241776 -0.0239935 -0.0245934 -0.0267239 -0.0222282 -0.0245523 -0.0229521 -0.024662 -0.0226072 -0.0245609 -0.0262861 -0.0240278 -0.0245228 -0.0225016 -0.0229886 -0.0220871 -0.0226835 -0.0231247 -0.0248693 -0.0240011 -0.0222616 -0.0224075 -0.0227575 -0.0225658 -0.0216415 -0.0254135 -0.0224781 -0.0226161 -0.0207424 -0.0224737 -0.0214405 -0.0237331 -0.0237808 -0.0489416 -0.0210037 -0.0217714 -0.0212955 -0.0213439 -0.0214777 -0.0189428 -0.0209265 -0.020415 -0.017746 -0.0179011 -0.0203466 -0.0204468 -0.0210495 -0.0184097 -0.0205536 -0.0214767 -0.0208197 -0.0199776 -0.0224781 -0.12712 -0.0455653 -0.0208702 -0.0226679 -0.0189362 -0.0218061 -0.0195287 -0.0202774 -0.0187349 -0.0204582 -0.0196095 -0.018055 -0.0187047 -0.0196781 -0.0189381 -0.0208282 -0.0159082 -0.0179625 1.74569 1.97457 1.36741 -0.0208855 -0.018954 -0.0195503 -0.0209808 -0.0193653 -0.0167646 -0.016154 -0.014452 -0.0182368 -0.0175629 -0.0168851 -0.0172167 -0.0181103 -0.0166257 -0.014993 -0.0149221 -0.015213 -0.0137272 -0.0137815 -0.0160122 -0.0143115 -0.0152273 -0.0168247 -0.018589 -0.0141576 -0.0154161 -0.0153332 -0.0133877 0.87065 -0.0148478 -0.015274 -0.0136127 -0.0145149 -0.0144892 -0.0106074 -0.0133886 -0.0140543 -0.0132942 -0.0139942 -0.0109367 -0.0129204 -0.0148602 -0.0127516 -0.0144234 -0.0124385 -0.0114927 -0.0130453 -0.0100479 -0.0101986 -0.00994205 -0.00932693 -0.0105438 -0.0102415 -0.008564 -0.0106373 -0.0115891 -0.0066096 -0.0116386 -0.0114212 -0.0116892 -0.00899887 -0.00868511 -0.00819778 -0.00892448 -0.00835896 -0.00830078 -0.00886631 -0.0066185 -0.0085556 -0.00785446 -0.00715923 -0.0100193 -0.00854874 -0.00725746 -0.00805283 -0.00826009 -0.00678762 -0.00716496 -0.00579643 -0.0163975 -0.125019 -0.00836563 -0.00588226 -0.00523504 -0.00670624 -0.0068121 -0.00839043 -0.00820541 -0.0074501 -0.00624084 -0.00627136 -0.00685883 -0.00496165 -0.00704575 -0.00579357 -0.00545883 -0.00645701 -0.00875282 -0.00766945 -0.00654697 -0.00676346 -0.00593694 -0.00373745 -0.00622559 -0.00459035 -0.00343418 -0.00308228 -0.00261497 -0.000867844 -0.00265694 -0.0017395 -0.00260925 -0.00138855 -0.000878652 -0.00209236 -0.00388432 -0.00321198 -0.00339317 -0.00211207 -0.00101217 -0.00382233 -0.00168228 -0.00249767 -0.00137711 -0.00179672 -0.00234731 0.00115967 0.00114822 -0.00179482 -0.00330639 -0.00167656 -0.00019455 -0.00349426 -0.0018158 -0.00153351 -0.00206757 -0.000484467 0.000749588 -0.000395775 0.0012188 0.00103664 0.000768026 0.00111961 -0.000240326 -0.000583649 0.00217438 -0.000274658 0.00206566 0.00141335 0.00136375 0.00311279 0.00051403 0.000888824 0.00138092 0.00118764 0.00247447 0.000356674 0.00287056 -0.00160599 0.00232506 0.000907898
-0.0300827 -0.0294189 -0.0295753 -0.0295582 -0.0315561 -0.0293999 -0.0282402 -0.0316982 -0.0308723 -0.0321369 -0.0291672 -0.0311337 -0.0310059 -0.0273037 -0.0292664 -0.0280487 -0.0303125 -0.0300732 1.95353 3.16208 2.86918 -0.0295544 -0.0274086 -0.0285683 -0.0280546 -0.0293884 -0.0277348 -0.0273679 -0.0279675 -0.026123 -0.028521 -0.0268466 -0.0252571 -0.0256042 -0.0278308 -0.0259933 -0.0253382 -0.0251102 -0.0258217 -0.025816 -0.0247364 -0.0248489 -0.023716 -0.0235901 -0.0223351 -0.0235392 -0.0247879 -0.0251783 -0.0241127 -0.0243034 -0.024437 -0.0243397 -0.0222178 -0.0240917 -0.0239156 -0.021739 -0.0224787 -0.0249987 -0.0221329 -0.0234394 -0.0233593 -0.0232038 -0.0244398 -0.0240097 -0.0226758 -0.0213407 -0.0218983 -0.0227604 -0.0228622 -0.0234451 -0.0211163 -0.0229959 -0.0217915 -0.023675 -0.0213346 -0.024751 -0.0242672 -0.0225239 -0.0236206 -0.0204144 -0.0222864 -0.0222187 -0.0222931 -0.0220963 -0.0234947 -0.0233841 -0.0207952 -0.022418 -0.0218601 -0.0232267 -0.0422033 -0.0217959 -0.0209274 -0.0205364 -0.0205414 -0.020401 -0.0204735 -0.0176983 -0.0213394 -0.0196676 -0.0184422 -0.0194321 -0.0185394 -0.0203476 -0.0198622 -0.0217619 -0.020771 -0.0205326 -0.0215321 -0.0205221 -0.129931 -0.0550861 -0.0215616 -0.0196056 -0.0207062 -0.0186768 -0.0200386 -0.0201883 -0.0178973 -0.0206432 -0.017416 -0.0178375 -0.0183153 -0.0181952 -0.0194426 -0.0168924 -0.019268 -0.0187855 -0.0170441 -0.0168371 -0.0177895 -0.016641 -0.0152575 -0.0168381 -0.01752 -0.0165386 -0.0193214 -0.0156937 -0.0154228 -0.0173864 -0.0161638 -0.0160306 -0.0145416 -0.0150461 -0.0174904 -0.0149193 -0.0156695 -0.0154648 -0.0142269 -0.0151199 -0.0154781 -0.0153131 -0.0151037 -0.0151456 -0.0138474 -0.0144653 -0.0165462 -0.0151243 -0.013958 -0.015893 -0.0143331 -0.0164502 -0.0125217 -0.0128225 -0.0127602 -0.0118663 -0.0125313 -0.0144672 -0.0121202 -0.0129042 -0.0126305 -0.0123844 -0.0143976 -0.0124512 -0.0100737 -0.0114155 -0.0103175 -0.01091 -0.0103416 -0.010767 -0.0109138 -0.0100594 -0.00703939 -0.00993538 -0.00754166 -0.0108194 -0.010849 -0.00776545 -0.00735664 -0.00905323 -0.00868988 -0.0104322 -0.00829887 -0.00638771 -0.00687504 -0.00708008 -0.00942993 -0.00786082 -0.00639343 -0.00684261 -0.00612005 -0.00668907 -0.00867653 -0.00734202 -0.00695515 -0.00747935 -0.005469 -0.00704384 -0.00503349 -0.00604248 -0.0166473 -0.123194 -0.00653267 -0.00668526 -0.00649389 -0.00680923 -0.0057888 -0.00529099 -0.00629552 -0.00427723 -0.00625324 -0.00620842 -0.00677967 -0.00486469 -0.00538254 -0.00540352 -0.0043478 -0.00554784 -0.00732803 -0.00362778 -0.00153923 -0.00565243 -0.00446129 -0.00136185 -0.00408936 -0.00284704 -0.00323105 -0.000904083 -0.00421143 0.000324249 -0.000743866 1.14441e-005 -0.00123405 0.00141398 -0.00080363 -0.00138187 -0.00483704 -0.00312805 -0.00132179 -0.00428645 -0.00290553 -0.00135803 -2.86102e-006 -0.0012207 -0.000324249 0.000353813 -0.00121816 -0.000120799 -0.0019474 -0.00171089 -0.00202751 -0.000156403 0.000156403 -0.00149536 -0.00276756 0.000471115 -0.00134563 -0.000429789 -0.000431061 0.00224813 0.000198364 0.00256157 0.000737508 -0.000226339 -0.00270081 0.000695229 -0.000450134 0.00207138 0.0019207 0.00645065 0.00344849 0.00128555 0.0025177 0.00265121 0.00338173 0.00380834 0.00296529 0.00172043 0.0045681 0.00303268 0.00449181 0.00196838
-0.029089 -0.029604 -0.0306025 -0.0273018 -0.0298605 -0.031333 -0.0317383 -0.0303841 -0.030035 -0.0303516 -0.0286102 -0.0284767 -0.030098 -0.0276489 -0.0298443 -0.0292492 -0.0279064 -0.0268707 -0.0280352 -0.0252151 2.83065 -0.0287437 -0.0257479 -0.0278072 -0.0285816 -0.0274467 -0.0263414 -0.0279007 -0.0264997 -0.0268707 -0.0258074 -0.0277074 -0.023777 -0.0270119 -0.0254122 -0.0243664 -0.0272655 -0.0257136 -0.026022 -0.023215 -0.0234241 -0.024416 -0.0234261 -0.0214062 -0.0239506 -0.0224673 -0.0245717 -0.0240033 -0.024354 -0.0232573 -0.0239897 -0.0224733 -0.0223853 -0.0223122 -0.0223885 -0.0246925 -0.0232048 -0.0233011 -0.0219231 -0.0214119 -0.0214872 -0.0207621 -0.024786 -0.0238829 -0.0240326 -0.0219173 -0.0223255 -0.02176 -0.0242531 -0.0234814 -0.0219402 -0.0216732 -0.0222225 -0.023859 -0.0209637 -0.0238177 -0.0245361 -0.0214462 -0.0210381 -0.0209179 -0.0204124 -0.0215355 -0.0215816 -0.0216583 -0.0221205 -0.0238142 -0.0210228 -0.0202573 -0.021018 -0.0231908 -0.0606232 -0.0204188 -0.0203171 -0.0204811 -0.0194578 -0.0200291 -0.0203419 -0.0196295 -0.0213089 -0.0201874 -0.0206928 -0.0189781 -0.020757 -0.0198174 -0.0183067 -0.0199718 -0.0185051 -0.0196047 -0.0197334 -0.0207882 -0.129084 -0.0615934 -0.0216656 -0.0194712 -0.0170126 -0.0198237 -0.0193164 -0.0190039 -0.019323 -0.019146 -0.0183172 -0.0176315 -0.020401 -0.0149708 -0.0152206 -0.0179812 -0.018343 -0.0182486 -0.0172939 -0.0162303 -0.01763 -0.0170574 -0.0157156 -0.0177774 -0.0177701 -0.0179043 -0.0168867 -0.0173073 -0.0144968 -0.0174885 -0.0157089 -0.0157804 -0.0154333 -0.0168934 -0.0152461 -0.0166578 -0.0144386 -0.013031 -0.0155916 -0.0144984 -0.0137927 -0.0154133 -0.0144056 -0.0148188 -0.014185 -0.0158291 -0.0148163 -0.0131607 -0.0150166 -0.0168597 -0.0165342 -0.0154203 -0.0153942 -0.0139681 -0.0127754 -0.00878652 -0.0146151 -0.0109148 -0.0115814 -0.0116558 -0.00987816 -0.010581 -0.0148945 -0.0118313 -0.0140676 -0.00952911 -0.0101229 -0.0106096 -0.0101293 -0.0102329 -0.010211 -0.00864792 -0.0108643 -0.00908089 -0.00906944 -0.0102777 -0.00948079 -0.00965118 -0.00856495 -0.0100155 -0.00678126 -0.00731405 -0.00744152 -0.0059185 -0.00873566 -0.00586192 -0.00721264 -0.00795619 -0.0115547 -0.00859451 -0.00675201 -0.00749397 -0.00686264 -0.00642204 -0.00648689 -0.008653 -0.00655842 -0.00760269 -0.00511456 -0.00485611 -0.0202827 -0.124029 -0.00470734 -0.00494576 -0.00413005 -0.00550461 -0.00531578 -0.0025177 -0.0056715 -0.00363731 -0.000534058 -0.00508245 -0.0041949 -0.00662231 -0.00291824 -0.00389481 -0.00451279 -0.00620015 -0.00191307 -0.00481415 -0.00130749 -0.00430298 -0.00278664 -0.00175476 -0.00400352 -0.00135676 -0.00396347 -0.00101089 -0.00214195 -0.00150871 -0.0020841 -0.00182056 0.00152016 0.00019455 -0.00294495 -0.000406901 -0.00324345 -0.00177193 0.000743866 0.000387828 -0.00307719 -0.00143814 0.00214195 -0.00225735 0.000707626 -0.000350952 -0.00154495 0.000797272 4.57764e-005 -0.00178909 0.00108624 -0.00167084 7.37508e-005 -0.00182851 -0.0025177 0.00246811 0.000181198 0.00220871 -1.27157e-006 0.00165685 0.00219536 0.00225067 -0.000221252 -0.000144958 0.00210571 0.00214386 0.00251961 0.00171026 0.00304794 0.00111771 0.00107002 -0.000205994 0.0047617 0.00218678 0.00188446 0.00232442 0.000534058 0.00277901 0.00481987 0.00328636 0.0053854 0.00212097
-0.0286484 -0.0278988 -0.0307083 -0.0312834 -0.0291882 -0.02845 -0.030035 -0.0296631 -0.0274677 -0.0265102 -0.0279369 -0.0301657 -0.0287027 -0.0275373 -0.0280215 -0.027998 -0.0309305 -0.0309258 -0.0275719 -0.0257874 2.69959 -0.0290648 -0.0280431 -0.025856 -0.0273972 -0.0263214 -0.027195 -0.0249526 -0.026701 -0.0259647 -0.0271606 -0.0255941 -0.0254529 -0.0251493 -0.0237494 -0.0249462 -0.0249195 -0.0255063 -0.0228081 -0.0261993 -0.0241642 -0.0257177 -0.0222712 -0.0245209 -0.0235023 -0.0221812 -0.0257492 -0.0263418 -0.0246983 -0.0254974 -0.0218226 -0.0226046 -0.0249151 -0.023674 -0.021445 -0.023222 -0.0217781 -0.0258541 -0.022356 -0.0236816 -0.0234159 -0.0218455 -0.0244932 -0.0249462 -0.024828 -0.0240021 0.924635 0.921584 0.294449 -0.0230389 0.357193 0.355129 0.355337 0.359444 -0.0215473 -0.0223262 -0.0231457 -0.0202188 -0.0216312 -0.0196095 -0.0212336 -0.0202131 -0.0212345 -0.0212949 -0.0227051 -0.0227299 -0.0206528 -0.0209745 -0.0212841 -0.0237147 -0.0416743 -0.022048 -0.018987 -0.0212297 0.511704 0.352296 0.354187 -0.0179205 0.449378 0.434442 0.587688 0.766999 0.352973 -0.0208759 -0.0186453 -0.0184088 -0.0177887 -0.0172056 -0.0182505 -0.0200977 -0.132038 -0.0345103 -0.0190001 -0.0207799 -0.0196495 -0.0213013 -0.0211945 -0.0183975 -0.0185038 -0.0179952 -0.0160408 -0.0173321 -0.0160618 -0.0172901 -0.0189934 -0.015447 -0.0165405 -0.0164576 -0.0175985 -0.0160433 -0.0166641 -0.0171026 -0.0187454 -0.0181961 -0.0157445 -0.0161158 -0.0137609 -0.0161333 -0.0155347 -0.0168667 -0.0161991 -0.0173092 -0.0165024 -0.0170746 -0.0173292 -0.0131035 -0.014061 -0.0162315 -0.0148989 -0.0154889 -0.0148532 -0.0159883 -0.0121136 -0.0157804 -0.0161047 -0.0145025 -0.014286 -0.0151587 -0.0164623 -0.0162595 -0.0159378 -0.0115223 -0.0136604 -0.0161676 -0.0112114 -0.0117429 -0.0120945 -0.00815201 -0.0138168 -0.0130978 -0.0083828 -0.0102768 -0.00871468 -0.011584 -0.0122528 -0.0108128 -0.00899982 -0.0116437 -0.0111631 -0.00944233 -0.00950813 -0.00786018 -0.00907993 -0.00980568 -0.00932312 -0.00846291 -0.00967153 -0.00963465 -0.00775019 -0.00732708 -0.00738653 -0.00966644 -0.00744502 -0.00775909 -0.00568771 -0.00619888 -0.00563622 -0.00676155 -0.00609398 -0.00566864 -0.0088625 -0.00704193 -0.00567341 -0.00715129 -0.00712776 -0.00578117 -0.00640869 -0.00761223 -0.0058403 -0.00399017 -0.0315962 -0.119396 -0.00559616 -0.00368118 -0.00532055 -0.00422414 -0.00484657 -0.00579071 -0.00583649 -0.00420856 -0.00363636 -0.00655238 -0.00594457 -0.00694466 -0.00555038 -0.00381851 -0.00745392 -0.00454712 -0.00558186 -0.00378799 -0.00244649 -0.00311279 -0.000720978 -0.00311279 -0.00774002 -0.00258636 -0.00455983 -0.00234095 -0.00158882 -0.000785828 0.00122833 -0.00174205 -0.000774384 -0.0010643 -0.000223796 -0.00091807 -0.00484339 -0.000411987 0.0014677 -0.000830332 -0.000831604 -0.000547409 0.000393867 -0.000104904 0.00206757 -0.00138664 -0.000621796 0.000160217 -0.000501633 0.000370026 0.00132942 -0.0041275 -0.000928879 -0.000667572 -0.00179482 5.72205e-006 0.000821114 0.00182343 0.00117874 -0.000974019 0.00292206 0.00512123 0.0018692 0.00258827 -0.000576019 0.000952721 -0.00121689 0.00193532 3.33786e-005 -6.48499e-005 0.000843048 0.00115967 -0.000326157 0.000923157 0.00771141 0.00324758 0.000177383 0.00152397 0.00347614 0.000667572 0.000852585 0.00365067
