-1.49463 -1.49463 -1.49463 -0.249875 -0.446465 -0.139626 -0.338791 -1.49463 -1.49463 -1.49463 -1.49463 -1.49463 -1.49463 -1.49463 -1.49463 -0.59816 -0.558121 -1.49463 -1.49463 -0.658203 -1.49463 -1.49463 -1.49463 -1.49463 -1.49463 -0.788788 -1.49463 -0.778473 -1.49463 -1.49463 -0.81691 -0.814621 -1.49463 -0.845139 -1.49463 -0.888652 -1.49463 -0.889618 -1.49463 -1.49463 -1.49463 -1.49463 -0.895142 -1.49463 -0.916107 -1.04924 -1.05418 -1.05205 -0.590924 0.0343374 0.0334854 0.0305023 0.0355606 0.0303993 0.0339661 0.0975952 0.264503 0.239304 0.241646 0.225525 0.230103 0.236374 0.24498 0.230644 0.239792 0.226181 0.223129 0.243479 0.220886 -1.49463 0.0631866 0.0134583 0.0143127 0.0187378 0.0133362 0.0163956 0.0101725 0.0128098 0.00973511 0.00815328 0.00756836 0.00465393 0.00665792 0.00255585 0.00778198 0.0035909 0.0075531 0.00151062 0.157336 0.229691 0.206924 0.224953 0.211845 0.21637 0.212341 0.206645 0.21843 0.207657 0.204483 0.195053 0.201411 0.216606 0.192078 -1.49463 -0.00690842 -0.0126801 -0.00827026 -0.0157623 -0.00898743 -0.0141195 -0.0119858 -0.0160624 -0.0114288 -0.0152893 -0.0163981 -0.0194473 -0.0183105 -0.0180664 -0.0217438 -0.0209198 -0.0244141 -0.0212453 0.0878067 0.186264 0.185394 0.180176 0.190674 0.179451 0.180054 0.176895 0.17981 0.172836 0.177261 0.172287 0.174789 0.169708 0.0300446 -0.0361099 -0.03759 -0.0410919 -1.49463 -1.49463 -1.49463 -1.49463 0.599907 -1.14683 -1.14767 -0.927643 -1.10242 -0.932602 -1.49463 -1.07133 -1.49463 -1.05052 -1.49463 -1.49463 -1.49463 -1.49463 -1.49463 -1.49463 -0.991257 -0.989059 -0.970169 -1.49463 -1.49463 -1.49463 -0.934153 -0.916316 -0.883331 -0.884832 -0.858322 -0.832372 -0.842896 -0.805935 -0.786758 -0.784302 -0.772583 -0.748039 -0.7264 -0.710648 -0.694702 -0.662262 -0.656342 -0.64579 -0.62001 -0.601395 0.344286 -0.609032 -0.585533 -0.102965 -1.49463 -1.49463 -1.49463
-1.49463 -1.49463 -1.49463 -0.131705 -0.44696 -0.119419 -0.331886 -1.49463 -1.49463 -1.49463 -1.49463 -1.49463 -1.49463 -1.49463 -1.49463 -0.597023 -0.555801 -1.49463 -1.49463 -1.49463 -1.49463 -1.49463 -1.49463 -1.49463 -1.49463 -0.790596 -1.49463 -1.49463 -1.49463 -1.49463 -1.49463 -1.49463 -1.49463 -1.49463 -1.49463 -0.8759 -1.49463 -1.49463 -1.49463 -1.49463 -1.49463 -1.49463 -1.49463 -1.49463 -1.49463 -1.04894 -1.05658 -1.05399 -0.514484 0.0360413 0.033783 0.0289841 0.0358887 0.0287933 0.0319672 0.0930862 0.290512 -1.49463 -1.49463 -1.49463 -1.49463 -1.49463 -1.49463 0.238602 -1.49463 -1.49463 -1.49463 -1.49463 -1.49463 -1.49463 0.0164795 0.0143738 0.0123901 0.0156784 0.0105133 0.0149384 0.00853475 0.0108795 0.00733185 0.00895182 0.00432587 0.00302124 0.00342306 0.0043335 0.00593567 0.0017128 0.0059433 -0.000605265 0.165176 -1.49463 -1.49463 -1.49463 -1.49463 -1.49463 -1.49463 0.197784 0.24971 -1.49463 -1.49463 -1.49463 -1.49463 -1.49463 0.0752258 -1.49463 -0.011673 -0.0126343 -0.00941467 -0.0139198 -0.00940704 -0.0159556 -0.0140533 -0.0190989 -0.014595 -0.0196533 -0.0196533 -0.017334 -0.0197296 -0.01769 -0.0225754 -0.0221558 -0.0253754 -0.0251058 0.147928 0.261597 0.217529 0.20636 -1.49463 0.195602 -1.49463 0.206337 -1.49463 0.195641 -1.49463 -1.49463 0.184326 0.195007 -1.49463 -0.0402527 -0.036499 -0.0462952 -1.49463 -1.49463 -1.49463 -1.49463 -1.1395 -1.14667 -1.15118 -0.259604 -1.49463 -1.49463 -1.49463 -1.49463 -1.49463 -1.49463 -1.49463 -1.49463 -1.49463 -1.49463 -1.49463 -1.49463 -1.49463 -1.49463 -1.49463 -1.49463 -1.49463 -1.49463 -1.49463 -0.913727 -1.49463 -1.49463 -0.829346 -0.798973 -0.794113 -0.77037 -0.755219 -0.725372 -0.718536 -0.712379 -0.667305 -0.661896 -0.646141 -0.627647 -0.603851 -1.49463 -0.587036 -1.49463 0.216436 -0.611076 -0.586926 -0.179758 -1.49463 -1.49463 -1.49463
-1.49463 -1.49463 -1.49463 -0.0556946 -0.450485 -0.138021 -0.334717 -1.49463 -1.49463 -1.49463 -1.49463 -1.49463 -1.49463 -1.49463 -1.49463 -0.602798 -0.559273 -1.49463 -1.49463 -1.49463 -1.49463 -1.49463 -1.49463 -1.49463 -1.49463 -0.787292 -1.49463 -1.49463 -1.49463 -1.49463 -1.49463 -1.49463 -1.49463 -1.49463 -1.49463 -0.892008 -1.49463 -1.49463 -1.49463 -1.49463 -1.49463 -1.49463 -1.49463 -1.49463 -1.49463 -1.0486 -1.05621 -1.05595 -0.568649 0.0356089 0.0297394 0.0250854 0.0327072 0.028286 0.0302353 0.0945587 0.291 -1.49463 -1.49463 -1.49463 -1.49463 -1.49463 -1.49463 0.236404 -1.49463 -1.49463 -1.49463 -1.49463 -1.49463 -1.49463 0.0149689 0.010582 0.0128021 0.0131798 0.0109253 0.0153046 0.00799179 0.0094223 0.00314331 0.00481669 0.00430298 0.000427246 0.00423177 0.0026474 0.00538635 -6.10352e-005 0.00613403 -0.00179545 0.161267 -1.49463 -1.49463 -1.49463 -1.49463 -1.49463 -1.49463 0.192696 0.252853 -1.49463 -1.49463 -1.49463 -1.49463 -1.49463 0.0696869 -1.49463 -0.0104421 -0.0131149 -0.0110474 -0.0151723 -0.0103302 -0.0172234 -0.0156555 -0.0215352 -0.016449 -0.0193863 -0.019872 -0.0230484 -0.0219421 -0.0209096 -0.0230026 -0.0232735 -0.0287704 -0.0237478 0.116373 0.230118 -1.49463 -1.49463 -1.49463 -1.49463 -1.49463 0.189982 0.218933 -1.49463 -1.49463 -1.49463 -1.49463 -1.49463 -1.49463 -0.0384521 -0.0380554 -0.0439148 -1.49463 -1.49463 -1.49463 -1.49463 -1.14804 -1.15009 -1.15379 -0.283093 -1.49463 -1.49463 -1.49463 -1.49463 -1.49463 -0.994232 -1.49463 -1.49463 -1.49463 -1.00302 -0.956871 -1.49463 -0.943161 -0.938278 -0.915184 -0.901199 -0.911728 -0.882629 -0.873764 -0.934486 -0.848373 -1.49463 -0.828064 -0.793747 -0.787354 -0.776939 -1.49463 -0.727707 -0.722794 -0.722065 -0.682396 -0.672523 -0.636322 -0.634333 -0.602577 -1.49463 -1.49463 -0.531631 -0.602158 -0.614746 -0.587807 -0.128746 -1.49463 -1.49463 -1.49463
-1.49463 -1.49463 -1.49463 -0.0787557 -0.45488 -0.17536 -0.163266 -1.49463 -1.49463 -1.49463 -1.49463 -1.49463 -1.49463 -1.49463 -0.537659 -0.601624 -0.563644 -0.600632 -0.617264 -0.651932 -1.49463 -0.670181 -0.713715 -1.49463 -1.49463 -0.793905 -0.756683 -1.49463 -1.49463 -1.49463 -0.809708 -1.49463 -0.831726 -1.49463 -0.83992 -0.875854 -0.861404 -0.856781 -1.49463 -0.866852 -1.49463 -1.49463 -1.49463 -0.90033 -1.49463 -1.05356 -1.06049 -1.05973 -0.513246 0.035553 0.0325775 0.027298 0.0323029 0.0266724 0.0270996 0.09714 0.288361 -1.49463 -1.49463 -1.49463 -1.49463 -1.49463 -1.49463 0.240204 -1.49463 -1.49463 -1.49463 -1.49463 -1.49463 -1.49463 0.0137711 0.0131989 0.00852966 0.0118027 0.00663757 0.0120239 0.0056076 0.0112457 0.00443268 0.00591532 0.00255585 0.00174713 0.00301107 -0.00135803 0.00534058 0.000789642 0.00147247 -0.00390625 0.170597 -1.49463 -1.49463 -1.49463 -1.49463 -1.49463 -1.49463 0.196365 0.244568 -1.49463 -1.49463 -1.49463 -1.49463 -1.49463 -1.49463 0.0361481 -0.0133413 -0.0182037 -0.0119553 -0.0180003 -0.0126648 -0.0193024 -0.0160599 -0.0198466 -0.0166702 -0.0230713 -0.0203807 -0.0218964 -0.0228577 -0.0211538 -0.0253143 -0.0257924 -0.0312653 -0.0256805 0.0825475 -1.49463 -1.49463 0.198959 -1.49463 -1.49463 -1.49463 0.201355 0.203384 -1.49463 -1.49463 -1.49463 -1.49463 -1.49463 -1.49463 -0.040329 -0.0383962 -0.0475311 -1.49463 -1.49463 -1.49463 -1.49463 -1.15176 -1.14899 -1.15495 -0.260014 -1.49463 -1.49463 -1.49463 -1.0249 -1.01689 -1.49463 -0.99942 -0.983406 -0.983963 -1.00288 -0.964127 -0.945206 -0.945381 -0.944046 -0.925179 -0.901138 -0.898079 -0.901911 -0.88398 -0.894531 -0.8567 -0.840324 -0.822016 -0.803314 -0.788193 -0.774269 -0.752579 -0.734367 -1.49463 -0.716049 -0.669159 -0.662643 -0.649734 -0.633163 -0.614632 -0.586517 -0.567955 -0.543228 -0.607666 -0.615448 -0.589874 -0.1021 -1.49463 -1.49463 -1.49463
0.193848 0.0656738 -0.085083 -0.0843387 -0.453232 -0.289715 -0.496094 -0.466805 -1.49463 -0.481186 -1.49463 -0.55677 -0.467804 -0.609161 -1.49463 -0.661858 -0.561981 -0.705864 -0.624466 -0.714361 -0.726761 -0.779602 -0.732056 -0.814911 -0.768356 -0.82399 -0.79007 -0.833321 -0.860832 -0.860664 -0.887123 -0.827316 -0.941254 -0.882965 -0.920723 -0.946411 -0.891068 -0.933937 -0.938309 -1.00185 -0.920792 -0.950165 -1.03374 -0.994278 -0.982773 -1.05524 -1.05968 -1.06073 -0.567775 0.0314331 0.0301285 0.0253448 0.0319672 0.0260353 0.0278702 0.0970612 0.257339 0.122665 -1.49463 0.167267 0.0167389 0.173851 0.181305 0.235535 0.162491 -1.49463 0.139196 0.115677 0.216461 0.174759 0.0141068 0.00855255 0.00566101 0.00836945 0.00654602 0.00868988 0.00506592 0.0067749 0.003479 0.00128682 0.00183105 -0.000656128 0.0021108 -0.00254059 0.00158691 -0.000834147 -0.000411987 -0.00561142 0.141872 0.198082 -1.49463 0.16404 0.20359 0.198044 0.224579 0.194283 0.222 0.206223 0.208466 0.141586 0.205917 0.187805 0.107376 0.0237122 -0.0119832 -0.0170364 -0.0142212 -0.0177561 -0.0165558 -0.0195236 -0.0151672 -0.0210991 -0.0178223 -0.0223694 -0.0196838 -0.0218353 -0.0251083 -0.0246887 -0.0252075 -0.0250956 -0.0293579 -0.0275269 0.0772146 0.221001 -1.49463 0.192347 0.197021 0.185654 0.213287 0.187775 0.193329 0.188248 0.201752 -1.49463 0.185486 0.173218 -1.49463 -0.0435028 -0.0414581 -0.0510864 -1.49463 -1.49463 -1.49463 -1.49463 -1.15347 -1.15257 -1.1592 -0.2046 -1.49463 -1.49463 -0.806076 -1.02879 -1.0039 -1.0026 -0.997894 -0.990997 -0.974197 -1.00026 -0.960152 -0.9562 -0.946554 -0.939568 -0.924484 -0.918205 -0.915853 -0.898743 -0.895691 -0.912084 -0.857765 -0.839195 -0.82988 -0.80427 -0.787712 -0.764938 -0.759659 -0.735516 -0.723801 -0.712784 -0.692665 -0.66687 -0.639099 -0.631119 -0.600657 -0.592506 -0.57085 -0.55512 -0.61248 -0.61245 -0.588776 -0.178945 -1.49463 -1.49463 -1.49463
-1.49463 -1.49463 -0.18293 -0.167549 -0.456017 -0.478012 -0.495331 -0.508934 -0.533234 -0.552856 -0.568428 -0.595795 -0.617149 -0.631821 -0.657166 -0.670578 -0.687553 -0.72142 -1.49463 -0.749077 -0.77977 -0.790421 -0.81118 -0.821976 -0.830605 -0.848358 -0.86496 -0.87648 -0.90035 -0.910919 -0.926559 -0.938965 -0.944641 -0.958328 -0.966751 -0.978861 -0.997658 -1.00052 -1.00907 -1.01601 -1.02068 -1.03152 -1.03105 -1.03876 -1.04684 -1.05629 -1.06071 -1.06087 -0.509399 0.0348206 0.0286102 0.0274734 0.031601 0.0238419 0.0258789 0.0217514 0.023941 0.0189056 0.0179596 0.0206451 0.0175476 0.0217438 0.0153732 0.014389 0.00836182 0.00875854 0.0129852 0.00949097 0.0149918 0.0101471 0.0114899 0.00569153 0.00647736 0.00886536 0.00397491 0.00996399 0.0030009 0.00556946 0.00293732 0.0022583 -0.000549316 -0.00254822 -0.000635783 -0.00463867 0.00269318 -0.00326029 0.000236511 -0.00751495 -0.00510406 -0.00995636 -0.0139008 -0.00795492 -0.000587463 -0.00836945 -0.0142415 0.0161082 -0.0125376 -0.00803375 -0.0105934 -0.00514984 -0.0142822 0.00357056 -0.0146484 -0.0181732 -0.0158183 -0.0165634 -0.0151749 -0.0198568 -0.0153961 -0.0224762 -0.0202255 -0.0233561 -0.0168228 -0.0216827 -0.0244649 -0.0259628 -0.026947 -0.0233968 -0.0311737 -0.0275459 -0.031662 -0.0282135 -0.032842 -0.0304108 0.0309715 -0.0324249 -0.038063 -0.0291748 -0.0263367 0.0546214 0.0230713 -0.036377 -0.0387421 0.0196152 -0.0406036 0.0139008 -0.0431366 -0.0310364 -0.0416107 -0.054657 -1.49463 -1.49463 -1.49463 -1.49463 -1.15196 -1.15214 -1.15948 -1.00034 -1.15881 -1.11968 -1.16037 -1.10377 -1.08743 -1.09264 -1.07428 -1.06566 -1.07167 -1.03728 -1.02764 -1.05611 -1.00208 -1.03155 -0.984563 -0.99968 -0.963226 -0.961568 -0.963033 -0.936737 -0.880104 -0.938538 -0.842186 -0.858027 -0.859688 -0.840107 -0.799728 -0.755409 -0.803093 -0.748988 -0.714279 -0.714167 -0.702797 -0.650431 -0.657099 -0.662743 -0.608882 -0.56724 -0.625468 -0.614532 -0.59193 -0.128911 -1.49463 -1.49463 -1.49463
-1.49463 -1.49463 -1.49463 -0.172536 -0.45697 -0.47805 -0.4972 -0.510986 -0.534912 -0.553612 -0.573288 -0.59716 -0.620834 -0.630859 -0.659927 -0.678658 -0.690826 -0.714005 -0.731491 -0.750908 -0.778831 -0.790146 -0.810242 -0.825874 -0.833054 -0.853882 -0.86441 -0.874786 -0.89861 -0.916634 -0.93087 -0.942154 -0.944557 -0.960785 -0.972015 -0.98173 -0.998245 -1.00114 -1.01086 -1.01706 -1.02389 -1.03116 -1.03486 -1.0407 -1.04681 -1.05293 -1.06404 -1.06704 -0.532514 0.0322164 0.0289307 0.026825 0.0314865 0.0249634 0.0262146 0.0193329 0.0198822 0.0160446 0.017395 0.0196075 0.0153605 0.0184402 0.0155029 0.014061 0.011528 0.0107269 0.0161438 0.00932312 0.0169983 0.00934601 0.0100149 0.00649261 0.00601196 0.00719833 0.0015564 0.00897217 0.00272624 0.00523376 -0.000350952 0.000681559 -0.000656128 -0.00119019 0.000768026 -0.00424957 0.00288391 -0.00171407 -0.00169373 -0.00492096 -0.00233459 -0.00674438 -0.0104828 -0.00834656 -0.0117264 -0.00758362 -0.0104675 -0.0065155 -0.0106913 -0.00898743 -0.0140228 -0.0165634 -0.015686 -0.0185699 -0.0134888 -0.0174713 -0.0158335 -0.0209198 -0.015213 -0.0210266 -0.0158768 -0.0204239 -0.0174255 -0.0227 -0.0218811 -0.0252838 -0.0241356 -0.0255127 -0.0264435 -0.0237694 -0.0295639 -0.0288467 -0.0297623 -0.0270386 -0.0334676 -0.0307541 -0.0334117 -0.0337296 -0.03722 -0.0348511 -0.0361633 -0.0357056 -0.0380707 -0.0351944 -0.0377579 -0.0409241 -0.041481 -0.0416158 -0.0425873 -0.0449295 -0.040507 -0.0527802 -1.49463 -1.49463 -1.49463 -1.49463 -1.15504 -1.15385 -1.15952 -1.15348 -1.16098 -1.15879 -1.16232 -1.1597 -1.1593 -1.15305 -1.14828 -1.14072 -1.12764 -1.12039 -1.11438 -1.1041 -1.09697 -1.08467 -1.07388 -1.06382 -1.04695 -1.04033 -1.02664 -1.01944 -0.996708 -0.986481 -0.967239 -0.944424 -0.929161 -0.909785 -0.892326 -0.874619 -0.856883 -0.832798 -0.818085 -0.799444 -0.778524 -0.754654 -0.73587 -0.705516 -0.685852 -0.665894 -0.636696 -0.618668 -0.593323 -0.0974782 -1.49463 -1.49463 -1.49463
-1.49463 -1.49463 -1.49463 -0.247143 -0.458412 -0.482712 -0.499069 -0.515923 -0.539322 -0.558929 -0.57238 -0.600418 -0.619209 -0.633163 -0.65947 -0.676102 -0.691025 -0.714233 -0.731438 -0.75135 -0.778305 -0.793625 -0.814148 -0.825562 -0.837677 -0.858856 -0.870857 -0.877701 -0.905487 -0.918167 -0.936127 -0.94487 -0.946808 -0.962097 -0.967987 -0.980199 -1.00088 -0.999893 -1.00983 -1.01955 -1.02544 -1.03732 -1.03497 -1.04448 -1.04816 -1.05771 -1.06277 -1.06384 -0.53323 0.0292867 0.0241394 0.0206985 0.0271912 0.0221863 0.0237274 0.0201035 0.0209198 0.0149994 0.0137863 0.0194702 0.0129852 0.0160217 0.0117035 0.00887299 0.0133769 0.0092392 0.0141907 0.0088857 0.0106735 0.00842285 0.00807953 0.0045929 0.00215912 0.00527954 -0.0019989 0.0075531 0.00147502 0.00353241 0.00139618 0.000742594 -0.00257874 -0.00245667 -0.00110372 -0.0059433 -0.00038147 -0.00444539 0.000793457 -0.00422668 -0.0057373 -0.00817108 -0.0107117 -0.00847371 -0.0135803 -0.00886536 -0.0115929 -0.00626373 -0.0147349 -0.00902557 -0.014637 -0.0130234 -0.0162048 -0.0134939 -0.0161743 -0.0195313 -0.0191116 -0.0204849 -0.0174332 -0.0230713 -0.0185852 -0.0218455 -0.0206451 -0.0259171 -0.0257568 -0.0257263 -0.0257416 -0.027298 -0.0291901 -0.0279643 -0.0288696 -0.0290871 -0.0329742 -0.0299911 -0.0359751 -0.0311737 -0.0348714 -0.0337067 -0.0375366 -0.0322571 -0.0387929 -0.0383911 -0.0418599 -0.0348969 -0.040657 -0.0416412 -0.0418854 -0.043045 -0.0440903 -0.0441895 -0.0429802 -0.0568008 -1.49463 -1.49463 -1.49463 -1.49463 -1.15714 -1.15334 -1.15963 -1.1595 -1.16152 -1.16 -1.16241 -1.16016 -1.16216 -1.15376 -1.15114 -1.14015 -1.13101 -1.12157 -1.11227 -1.10529 -1.09555 -1.08595 -1.0751 -1.06519 -1.05151 -1.0413 -1.02737 -1.01813 -0.996674 -0.987007 -0.965388 -0.942439 -0.929916 -0.915207 -0.893768 -0.874092 -0.859486 -0.831111 -0.816299 -0.797031 -0.777222 -0.756058 -0.732452 -0.70689 -0.684563 -0.66687 -0.635357 -0.619324 -0.597229 -0.170294 -1.49463 -1.49463 -1.49463
-1.49463 -1.49463 -1.49463 -0.240239 -0.461594 -0.484352 -0.501656 -0.518524 -0.540985 -0.557808 -0.573318 -0.599701 -0.624512 -0.634087 -0.662689 -0.680984 -0.691605 -0.716042 -0.733719 -0.758046 -0.784958 -0.792877 -0.815704 -0.829483 -0.837585 -0.857681 -0.873123 -0.882019 -0.905746 -0.920181 -0.934662 -0.945221 -0.950653 -0.963425 -0.972771 -0.986501 -1.0004 -1.00022 -1.01115 -1.01826 -1.02372 -1.03836 -1.03922 -1.04644 -1.0507 -1.05454 -1.0661 -1.06816 -0.548629 0.0274607 0.0247116 0.0223694 0.0260849 0.0209885 0.0254364 0.020874 0.016571 0.0162506 0.0115967 0.0184402 0.0099233 0.0158997 0.0088501 0.0101166 0.0104574 0.00778198 0.0140686 0.00779724 0.0131073 0.00718689 0.00719198 0.00494385 0.00120544 0.0047226 0.00025177 0.00491333 -0.000940959 0.00436401 -0.000518799 -0.00157674 -0.00393677 -0.00592041 -0.0030365 -0.00949097 -0.00364685 -0.00521342 -0.00175476 -0.00712077 -0.00904083 -0.0105133 -0.0121613 -0.01091 -0.0127487 -0.00930786 -0.0146103 -0.011116 -0.0139669 -0.010376 -0.0161641 -0.0109634 -0.0159607 -0.0177307 -0.0154165 -0.0204849 -0.0178375 -0.0227814 -0.0188446 -0.0229721 -0.0204468 -0.0261434 -0.0224457 -0.0251846 -0.0253499 -0.0289154 -0.0273488 -0.0295868 -0.0310364 -0.0288137 -0.0324936 -0.0317993 -0.0354691 -0.0301666 -0.0355326 -0.0320892 -0.038002 -0.0340652 -0.0389481 -0.0354004 -0.0401917 -0.0360718 -0.0427094 -0.0387344 -0.0412903 -0.04245 -0.0452423 -0.0430145 -0.0461121 -0.0473022 -0.0445964 -0.0571747 -1.49463 -1.49463 -1.49463 -1.49463 -1.16071 -1.15439 -1.16174 -1.15962 -1.16313 -1.15914 -1.16178 -1.15919 -1.16127 -1.15503 -1.1539 -1.14448 -1.12968 -1.12437 -1.11299 -1.10873 -1.09659 -1.08878 -1.07583 -1.06817 -1.05357 -1.04578 -1.02732 -1.01735 -1.00005 -0.98513 -0.969381 -0.948502 -0.929253 -0.913433 -0.891052 -0.873474 -0.86353 -0.835734 -0.820435 -0.797078 -0.772909 -0.75425 -0.736643 -0.710175 -0.683334 -0.662496 -0.637268 -0.619888 -0.597202 -0.114215 -1.49463 -1.49463 -1.49463
-1.49463 -1.49463 -1.49463 -0.160911 -0.464012 -0.484589 -0.501907 -0.521393 -0.543968 -0.560837 -0.574921 -0.602264 -0.62291 -0.63681 -0.662437 -0.680695 -0.693985 -0.71553 -0.735825 -0.752726 -0.78817 -0.795746 -0.819595 -0.831055 -0.843323 -0.863419 -0.87326 -0.884041 -0.9086 -0.923065 -0.938293 -0.947929 -0.954041 -0.968651 -0.976639 -0.983897 -1.00025 -1.00383 -1.01655 -1.01842 -1.02685 -1.04031 -1.03891 -1.05072 -1.05477 -1.05956 -1.06665 -1.06923 -0.549771 0.0278244 0.0253067 0.0213089 0.0250244 0.0177689 0.023468 0.0177383 0.0174205 0.0153961 0.0128708 0.01651 0.0102997 0.0139084 0.0105515 0.00816345 0.0113627 0.00535583 0.0112305 0.00791931 0.0098114 0.00592041 0.00522868 0.00254822 0.00246429 0.000834147 -0.00404358 0.00190735 -0.00342306 0.00245667 -0.00242615 -0.00202942 -0.00587463 -0.00739288 -0.00450516 -0.00764465 -0.00236511 -0.00563558 -0.00485229 -0.00668335 -0.00750224 -0.0110397 -0.0136337 -0.0107168 -0.0150146 -0.0116425 -0.0150948 -0.00796509 -0.0144908 -0.0148087 -0.0209351 -0.0169576 -0.0194397 -0.0181732 -0.0187785 -0.0214539 -0.0198161 -0.0223236 -0.0184326 -0.0232391 -0.0190125 -0.0253372 -0.0234222 -0.029068 -0.0271403 -0.0298309 -0.0267639 -0.0286026 -0.0291519 -0.0307973 -0.0333633 -0.0317688 -0.0356598 -0.0317383 -0.0357564 -0.0343018 -0.0381419 -0.0345001 -0.037674 -0.0369492 -0.0403175 -0.0387497 -0.0428162 -0.0407562 -0.043045 -0.0417671 -0.0449219 -0.044136 -0.0441691 -0.0476532 -0.045756 -0.0598907 -1.49463 -1.49463 -1.49463 -1.49463 -1.16075 -1.15613 -1.16272 -1.16168 -1.1646 -1.16321 -1.1676 -1.16066 -1.16061 -1.15724 -1.15465 -1.14359 -1.1319 -1.12589 -1.11855 -1.1095 -1.10264 -1.08835 -1.07789 -1.06977 -1.0573 -1.04566 -1.032 -1.02204 -0.995647 -0.985428 -0.967182 -0.945957 -0.932388 -0.913406 -0.895107 -0.875092 -0.859568 -0.835117 -0.820648 -0.800186 -0.779699 -0.754456 -0.733952 -0.704712 -0.682037 -0.666267 -0.638077 -0.621223 -0.598595 -0.0850512 -1.49463 -1.49463 -1.49463
-1.49463 -1.49463 -1.49463 -0.10818 -0.468628 -0.487434 -0.504929 -0.522148 -0.54744 -0.562866 -0.577042 -0.603203 -0.624603 -0.640762 -0.667267 -0.683479 -0.697647 -0.720634 -0.739227 -0.759354 -0.779564 -0.799217 -0.823013 -0.836334 -0.842133 -0.862625 -0.875793 -0.887466 -0.907476 -0.924187 -0.938454 -0.949707 -0.955383 -0.966476 -0.980255 -0.990331 -1.00522 -1.00816 -1.02017 -1.02363 -1.03162 -1.03954 -1.04204 -1.05131 -1.05539 -1.0569 -1.06934 -1.07206 -0.493785 0.0223694 0.0226542 0.0184174 0.0235367 0.0177269 0.0223846 0.016449 0.0144501 0.0144602 0.0113831 0.0167999 0.0110575 0.0147095 0.00860596 0.00804138 0.00887044 0.00843811 0.00904083 0.00683594 0.00923157 0.00463867 0.00456746 0.000617981 -0.00111389 0.00140381 -0.00224304 0.00271606 -0.00308736 -0.000411987 -0.000152588 -0.00159454 -0.00366974 -0.00658417 -0.00497437 -0.00634766 -0.00447845 -0.00945028 -0.00510406 -0.00808716 -0.00933329 -0.0134125 -0.0127716 -0.0119858 -0.0176315 -0.0121765 -0.0175629 -0.013031 -0.016154 -0.0159836 -0.0186462 -0.0162811 -0.0189819 -0.0191498 -0.0169983 -0.0218658 -0.0198212 -0.0241699 -0.0215912 -0.0247498 -0.0213318 -0.0252151 -0.0233917 -0.0256958 -0.0255941 -0.0289307 -0.0292435 -0.0316366 -0.0305481 -0.0301514 -0.033844 -0.0325724 -0.0374146 -0.0342331 -0.0377846 -0.0335617 -0.0391642 -0.0372086 -0.0415599 -0.0375977 -0.0403035 -0.0402908 -0.0409012 -0.0409164 -0.0480499 -0.0420329 -0.0446472 -0.0436935 -0.0461349 -0.0467148 -0.0471853 -0.0625 -1.49463 -1.49463 -1.49463 -1.49463 -1.16239 -1.15898 -1.16351 -1.1636 -1.16814 -1.16544 -1.16811 -1.16483 -1.16574 -1.15873 -1.15655 -1.14371 -1.13838 -1.1298 -1.11783 -1.11434 -1.10241 -1.09377 -1.08644 -1.07268 -1.0564 -1.04357 -1.02998 -1.01831 -0.996536 -0.985207 -0.965668 -0.945033 -0.93248 -0.918523 -0.896962 -0.877777 -0.863636 -0.834801 -0.82737 -0.801201 -0.779541 -0.759918 -0.731786 -0.708153 -0.684563 -0.665766 -0.637772 -0.620964 -0.59803 -0.159207 -1.49463 -1.49463 -1.49463
-1.49463 -1.49463 -1.49463 -0.0714836 -0.467041 -0.491577 -0.508865 -0.5233 -0.547447 -0.56691 -0.579994 -0.606873 -0.626137 -0.642365 -0.669113 -0.683487 -0.696663 -0.721054 -0.738022 -0.753098 -0.786479 -0.799377 -0.821808 -0.835602 -0.845314 -0.864403 -0.875732 -0.887192 -0.913366 -0.923416 -0.939529 -0.950333 -0.957581 -0.972435 -0.980606 -0.989894 -1.0061 -1.0083 -1.02332 -1.02884 -1.03105 -1.04368 -1.04097 -1.05284 -1.05479 -1.05967 -1.07225 -1.06888 -0.568689 0.0217438 0.0231578 0.0182877 0.0247498 0.0197754 0.0199814 0.0165558 0.0138931 0.0172323 0.0112228 0.0153046 0.0103811 0.011116 0.00939941 0.00700378 0.00990804 0.00513458 0.0119171 0.00403341 0.00912476 0.00296783 0.00349426 0.00283813 -0.000946045 -0.000116984 -0.0027771 -0.00107574 -0.00450134 -0.000671387 -0.00373077 -0.00201416 -0.0059967 -0.00619507 -0.00430806 -0.00642395 -0.00337219 -0.0109507 -0.00721741 -0.0122986 -0.00925191 -0.0124741 -0.010025 -0.0127207 -0.016037 -0.01194 -0.0191905 -0.0139465 -0.0185293 -0.0145721 -0.0205078 -0.0200653 -0.0199051 -0.0207291 -0.0206299 -0.0242081 -0.0190735 -0.0253296 -0.0225372 -0.0283152 -0.024765 -0.0288773 -0.0265656 -0.0290298 -0.0293503 -0.0305099 -0.0291799 -0.0294647 -0.0332413 -0.0316505 -0.0337601 -0.0314585 -0.0353394 -0.0327606 -0.0389557 -0.0355988 -0.0400594 -0.0352859 -0.0412025 -0.0350189 -0.0432434 -0.0422821 -0.0434316 -0.0417557 -0.043396 -0.0442403 -0.0440979 -0.0455856 -0.0450795 -0.0484467 -0.0454712 -0.0651703 -1.49463 -1.49463 -1.49463 -1.49463 -1.16435 -1.16136 -1.16611 -1.16483 -1.16861 -1.16615 -1.1716 -1.1657 -1.16557 -1.15953 -1.15726 -1.14694 -1.14092 -1.13186 -1.12369 -1.11413 -1.10594 -1.09647 -1.08563 -1.07141 -1.05595 -1.04931 -1.03039 -1.01973 -1.00051 -0.985909 -0.970128 -0.949392 -0.93383 -0.918175 -0.894831 -0.874191 -0.865657 -0.843224 -0.82695 -0.800222 -0.774251 -0.75544 -0.738719 -0.709071 -0.684967 -0.664271 -0.636471 -0.620956 -0.598801 -0.103695 -1.49463 -1.49463 -1.49463
-1.49463 -1.49463 -0.451202 -0.185698 -0.46962 -0.489998 -0.506699 -0.524071 -0.549301 -0.569862 -0.579819 -0.607109 -0.626785 -0.644005 -0.669113 -0.687164 -0.696213 -0.720261 -0.741028 -0.754944 -0.781164 -0.803757 -0.823364 -0.839958 -0.848526 -0.862946 -0.87709 -0.887802 -0.91273 -0.927086 -0.939232 -0.950958 -0.955841 -0.969116 -0.978935 -0.99323 -1.00697 -1.01189 -1.02281 -1.02946 -1.03607 -1.04622 -1.0462 -1.05477 -1.05885 -1.06036 -1.06799 -1.07318 -0.493598 0.021843 0.0216166 0.0172272 0.0227814 0.0169945 0.0193939 0.0166092 0.0151215 0.0123545 0.00926208 0.013092 0.00806173 0.0135345 0.0092926 0.00411987 0.00834147 0.00360107 0.00859833 0.00323486 0.00718689 -0.000167847 0.00371806 0.000900269 -0.00335693 -0.000630697 -0.00653839 -0.00535583 -0.00571187 -0.0032959 -0.00584412 -0.00134277 -0.00538635 -0.00576782 -0.00616455 -0.0101929 -0.00576782 -0.00891113 -0.00589752 -0.0104828 -0.0126292 -0.0132217 -0.0123901 -0.0122325 -0.0142288 -0.0126495 -0.0180664 -0.0167313 -0.0202128 -0.0185623 -0.021019 -0.0175476 -0.0217743 -0.023735 -0.0214589 -0.0265656 -0.0249023 -0.0287933 -0.0223007 -0.0275218 -0.026825 -0.0310008 -0.0279465 -0.0322571 -0.0303688 -0.0330048 -0.0307973 -0.0317688 -0.036171 -0.03302 -0.0333405 -0.0330238 -0.0396576 -0.0332489 -0.0395813 -0.035614 -0.0407817 -0.0366516 -0.040947 -0.0383987 -0.0427958 -0.0392532 -0.0472107 -0.0456034 -0.0451813 -0.0423838 -0.0493164 -0.0457535 -0.0439301 -0.0506744 -0.046917 -0.0637665 -1.49463 -1.49463 -1.49463 -1.49463 -1.1619 -1.16052 -1.16529 -1.16708 -1.16687 -1.16901 -1.17169 -1.16897 -1.16695 -1.16019 -1.15872 -1.14922 -1.13937 -1.13226 -1.12202 -1.11668 -1.10863 -1.09837 -1.08686 -1.07407 -1.05803 -1.04782 -1.03461 -1.02159 -0.998203 -0.988922 -0.967613 -0.950024 -0.932068 -0.915085 -0.897778 -0.878769 -0.8632 -0.843185 -0.82906 -0.806524 -0.781769 -0.758133 -0.736259 -0.706675 -0.68457 -0.666862 -0.638321 -0.621483 -0.595604 -0.121463 -1.49463 -1.49463 -1.49463
-1.49463 -1.49463 -0.45546 -0.155214 -0.473145 -0.495316 -0.511375 -0.528458 -0.552765 -0.569656 -0.584419 -0.609665 -0.630577 -0.645126 -0.672829 -0.692261 -0.703156 -0.725349 -0.742424 -0.757179 -0.788864 -0.808121 -0.827057 -0.84288 -0.848442 -0.86895 -0.881416 -0.887726 -0.91217 -0.92541 -0.945862 -0.953178 -0.956497 -0.974106 -0.980011 -0.991725 -1.00703 -1.01495 -1.02403 -1.03189 -1.03371 -1.04699 -1.04723 -1.05305 -1.05782 -1.06304 -1.07339 -1.07237 -0.566936 0.0205383 0.0235901 0.0184326 0.0189667 0.0134811 0.0176086 0.0113983 0.0126801 0.0141958 0.00913239 0.0132294 0.00721741 0.0111313 0.00660706 0.00357819 0.00694784 0.000717163 0.00531006 0.000773112 0.00405121 0.000457764 -0.00158691 -0.00265503 -0.00572205 -0.00365702 -0.00848389 -0.00215149 -0.00633748 -0.00149536 -0.00408173 -0.00334676 -0.00289917 -0.00309753 -0.00258891 -0.00978851 -0.00534058 -0.00733185 -0.008255 -0.0119019 -0.00966899 -0.0107574 -0.015625 -0.0140025 -0.0147552 -0.011322 -0.0193634 -0.0158539 -0.0205269 -0.0183258 -0.0233612 -0.0216217 -0.0226974 -0.0242157 -0.0209999 -0.0246658 -0.0227407 -0.0278702 -0.02388 -0.0301615 -0.0254593 -0.0317485 -0.0278931 -0.0320206 -0.0309296 -0.0347977 -0.0328827 -0.0313873 -0.0322418 -0.0329539 -0.0369415 -0.0369339 -0.0410004 -0.0340881 -0.038737 -0.0373383 -0.0398204 -0.0400391 -0.0419121 -0.0438232 -0.0446854 -0.0457077 -0.0466461 -0.0450083 -0.0450897 -0.0464274 -0.0480728 -0.0518341 -0.0470657 -0.0492172 -0.0473735 -0.0581818 -1.49463 -1.49463 -1.49463 -1.49463 -1.16403 -1.16301 -1.16967 -1.16614 -1.16901 -1.17044 -1.17172 -1.16994 -1.1684 -1.16383 -1.15921 -1.15031 -1.14542 -1.13459 -1.12108 -1.11674 -1.10757 -1.09683 -1.0892 -1.07498 -1.05949 -1.0474 -1.03211 -1.01938 -0.998362 -0.985535 -0.967331 -0.946218 -0.934631 -0.921555 -0.900584 -0.879906 -0.864243 -0.842499 -0.832199 -0.803406 -0.782772 -0.75885 -0.736781 -0.708977 -0.683174 -0.669357 -0.639519 -0.620964 -0.598854 -0.110401 -1.49463 -1.49463 -1.49463
-1.49463 -1.49463 -0.456406 -0.27182 -0.475708 -0.497269 -0.51329 -0.531487 -0.553673 -0.572212 -0.587219 -0.612167 -0.632889 -0.65023 -0.676483 -0.69062 -0.704071 -0.726242 -0.74469 -0.75676 -0.78539 -0.807579 -0.8284 -0.843323 -0.852097 -0.87439 -0.885757 -0.894165 -0.914467 -0.926361 -0.941096 -0.95636 -0.958984 -0.979095 -0.985229 -0.989609 -1.00632 -1.01745 -1.02582 -1.03619 -1.03432 -1.04639 -1.05083 -1.05894 -1.06257 -1.06567 -1.07518 -1.07664 -0.49168 0.0178452 0.0176086 0.0127258 0.016304 0.011879 0.0149231 0.00943756 0.0093689 0.0105693 0.00486755 0.0093689 0.00489299 0.00636292 0.00445557 0.00062561 0.00278091 -0.00101471 0.00445557 -0.00201416 0.00421143 0.00108337 0.000167847 -0.00527954 -0.00674438 -0.00186157 -0.0090332 -0.00590515 -0.00771077 -0.00624084 -0.0046463 -0.00711568 -0.00711823 -0.00959015 -0.00920105 -0.0107422 -0.00862122 -0.0109482 -0.0115433 -0.0151672 -0.0136363 -0.0160904 -0.0161591 -0.0154877 -0.0193558 -0.0149689 -0.0204506 -0.0179367 -0.024882 -0.0183716 -0.0237885 -0.0210686 -0.0240631 -0.0235443 -0.0255356 -0.0278778 -0.025135 -0.0322266 -0.0266495 -0.0308736 -0.0290985 -0.0337626 -0.0311203 -0.0317688 -0.0316823 -0.0352707 -0.0388336 -0.0344162 -0.0359497 -0.0358938 -0.0392151 -0.0387077 -0.0405045 -0.0368347 -0.042572 -0.037796 -0.044178 -0.0388794 -0.0450694 -0.0424347 -0.045433 -0.0457611 -0.0457458 -0.0470276 -0.047554 -0.0464783 -0.0487213 -0.0511322 -0.050532 -0.0559845 -0.049647 -0.067955 -1.49463 -1.49463 -1.49463 -1.49463 -1.16505 -1.16556 -1.16656 -1.16946 -1.17293 -1.17036 -1.17656 -1.17113 -1.17215 -1.16461 -1.15933 -1.15106 -1.14816 -1.13574 -1.12877 -1.1195 -1.111 -1.10186 -1.08842 -1.07493 -1.06316 -1.05252 -1.03485 -1.02233 -1.00356 -0.988243 -0.970891 -0.953339 -0.93689 -0.921539 -0.899551 -0.881348 -0.868184 -0.84581 -0.830129 -0.804428 -0.781441 -0.767222 -0.74323 -0.712677 -0.686798 -0.666214 -0.641861 -0.62532 -0.602242 -0.101287 -1.49463 -1.49463 -1.49463
-1.49463 -1.49463 -0.459442 -0.190225 -0.477585 -0.497742 -0.517929 -0.533096 -0.556458 -0.577606 -0.589294 -0.614006 -0.637711 -0.649338 -0.67569 -0.692688 -0.707268 -0.729004 -0.749512 -0.760391 -0.793315 -1.49463 -0.824509 -0.847 -0.856934 -0.87529 -0.887329 -0.897568 -0.914886 -0.92775 -0.93837 -0.957428 -0.960938 -0.980873 -0.987213 -0.987427 -1.01005 -1.01994 -1.03331 -1.03908 -1.03771 -1.05219 -1.05206 -1.05882 -1.06494 -1.06719 -1.07664 -1.07903 -0.565449 0.0192871 0.0179494 0.0107727 0.0126801 0.00790405 0.0102386 0.00932312 0.0096817 0.00998433 0.00378418 0.00881958 0.00359599 0.00605011 0.00253296 0.00148773 0.00305176 -0.001297 0.00506592 -0.000671387 0.00321197 -0.00248718 -0.00301107 -0.00351715 -0.00869751 -0.0056839 -0.00773621 -0.00646973 -0.00958761 -0.00669861 -0.0088501 -0.00779215 -0.00947571 -0.0124207 -0.0087026 -0.0147095 -0.00733948 -0.0146739 -0.0106201 -0.0145264 -0.0145454 -0.0200043 -0.0196381 -0.0163879 -0.0217209 -0.0185013 -0.0221786 -0.0191193 -0.0233307 -0.0220947 -0.0235825 -0.0226491 -0.024559 -0.0274048 -0.026432 -0.0307083 -0.0276438 -0.0315247 -0.0278244 -0.0306587 -0.028183 -0.0332947 -0.0313492 -0.0359039 -0.0330556 -0.0374908 -0.0383224 -0.0362498 -0.0390778 -0.0373179 -0.0409851 -0.0388336 -0.0437164 -0.0372238 -0.0422134 -0.0381927 -0.0456797 -0.039238 -0.0454305 -0.0423584 -0.0464859 -0.0476074 -0.047493 -0.0474586 -0.047287 -0.0464376 -0.0493469 -0.0512848 -0.050705 -0.0532303 -0.0521088 -0.0699234 -1.49463 -1.49463 -1.49463 -1.49463 -1.169 -1.16898 -1.171 -1.1724 -1.17596 -1.1757 -1.17801 -1.17612 -1.17352 -1.16686 -1.16647 -1.15521 -1.15115 -1.13926 -1.13025 -1.12299 -1.11475 -1.10376 -1.0937 -1.07977 -1.06507 -1.0516 -1.03809 -1.02831 -1.00342 -0.9897 -0.972458 -0.95509 -0.93924 -0.920537 -0.902069 -0.882263 -0.868042 -0.848946 -0.834457 -0.80953 -0.792618 -0.76623 -0.736994 -0.710576 -0.689316 -0.669647 -0.641533 -0.62606 -0.60273 -0.122251 -1.49463 -1.49463 -1.49463
-1.49463 -1.49463 -0.260971 -0.33783 -0.478546 -0.500671 -0.520691 -0.535652 -0.559044 -0.580345 -0.593231 -0.618179 -0.638916 -0.654648 -0.67942 -0.696136 -0.709579 -0.730804 -0.751633 -0.766403 -0.788254 -1.49463 -0.818456 -0.847397 -0.856628 -0.874344 -0.88887 -0.898651 -0.91758 -0.930038 -0.941563 -0.959442 -0.963196 -0.977554 -0.9869 -0.99173 -1.00847 -1.02026 -1.03482 -1.04131 -1.04057 -1.05156 -1.05408 -1.05963 -1.06439 -1.06822 -1.07811 -1.07915 -0.490696 0.014061 0.0138041 0.0106049 0.0130081 0.00917435 0.0142517 0.00524902 0.00576782 0.00612895 0.00457764 0.00801086 0.00342814 0.00480652 6.10352e-005 0.000930786 0.00166702 -0.00445557 0.0010376 -0.00253805 -0.00149536 -0.0027771 -0.00216675 -0.00680542 -0.00925446 -0.0067749 -0.010582 -0.00518799 -0.0121663 -0.00772095 -0.00868988 -0.006663 -0.00957489 -0.0125046 -0.0119222 -0.0135956 -0.0101089 -0.0150553 -0.0136871 -0.0175018 -0.0155131 -0.0191498 -0.0230713 -0.0180359 -0.0222778 -0.0173874 -0.024044 -0.0195999 -0.024765 -0.0211487 -0.0252075 -0.0272217 -0.027771 -0.0256424 -0.0258789 -0.0301819 -0.0282898 -0.0311279 -0.0252991 -0.0318197 -0.0263672 -0.0343552 -0.0301971 -0.0372925 -0.0344289 -0.0370483 -0.0383301 -0.0363464 -0.037262 -0.0362803 -0.0396347 -0.039388 -0.0427246 -0.038147 -0.0422414 -0.0412979 -0.0455119 -0.043808 -0.0464859 -0.0423431 -0.0463486 -0.0473557 -0.0469055 -0.0478516 -0.0503922 -0.0480398 -0.0515289 -0.0523911 -0.0522257 -0.0549316 -0.0501455 -0.0679932 -1.49463 -1.49463 -1.49463 -1.49463 -1.16858 -1.16802 -1.17399 -1.17085 -1.17719 -1.1737 -1.18108 -1.17535 -1.17473 -1.17012 -1.16737 -1.15618 -1.15218 -1.14242 -1.13204 -1.12431 -1.11126 -1.10448 -1.09731 -1.0828 -1.06622 -1.05595 -1.03675 -1.02502 -1.00186 -0.992912 -0.974335 -0.952774 -0.941093 -0.924133 -0.904826 -0.885239 -0.868195 -0.84874 -0.835678 -0.806953 -0.793022 -0.774623 -0.741562 -0.713917 -0.690308 -0.67129 -0.646252 -0.630592 -0.605019 -0.143778 -1.49463 -1.49463 -1.49463
-1.49463 -1.49463 -0.251785 -0.0258694 -0.480148 -0.501846 -0.520538 -0.539139 -0.5616 -0.580383 -0.59523 -0.620255 -0.643509 -0.659027 -0.678986 -0.698685 -0.708786 -0.732643 -0.75174 -0.76313 -0.797852 -1.49463 -0.828603 -0.850677 -0.860077 -0.877739 -0.890678 -0.900757 -0.922134 -0.931824 -0.942871 -0.96003 -0.964539 -0.979782 -0.988968 -0.99205 -1.01173 -1.02063 -1.03404 -1.0417 -1.03933 -1.05352 -1.05467 -1.06464 -1.05476 -1.06108 -1.0787 -1.07927 -0.564963 0.0157471 0.0153249 0.00836945 0.0142365 0.00893656 0.00856781 0.00538635 0.00427246 0.00680542 0.00125122 0.00669861 0.00153097 0.00260925 -0.00191498 -0.00385284 -0.00317383 -0.000640869 0.00117493 -0.00290426 -0.00112915 -0.00498962 -0.00414022 -0.00689697 -0.00886536 -0.00768661 -0.0115967 -0.00730896 -0.0136948 -0.00964355 -0.00993347 -0.0114492 -0.00987244 -0.0116272 -0.0103505 -0.0146103 -0.0133667 -0.0152079 -0.0130539 -0.0185013 -0.0185598 -0.0182953 -0.021759 -0.021815 -0.025238 -0.0206299 -0.026413 -0.0247116 -0.0243174 -0.0234833 -0.0252533 -0.0233205 -0.0275803 -0.0256805 -0.0257772 -0.0308914 -0.0293325 -0.033432 -0.0310059 -0.0326894 -0.0302811 -0.0347977 -0.0335999 -0.0363312 -0.0374107 -0.0393524 -0.0378265 -0.0381927 -0.0376892 -0.0342306 -0.0391083 -0.0379181 -0.0413513 -0.0378723 -0.044754 -0.0422363 -0.0445251 -0.042366 -0.0489273 -0.0463715 -0.0473251 -0.0470123 -0.0491791 -0.0492757 -0.0496445 -0.0483093 -0.0549011 -0.0509109 -0.0507253 -0.0557861 -0.0530472 -0.075943 -1.49463 -1.49463 -1.49463 -1.49463 -1.16987 -1.17076 -1.17754 -1.17389 -1.17896 -1.1787 -1.18246 -1.17706 -1.18217 -1.17215 -1.16931 -1.15865 -1.15472 -1.14596 -1.14133 -1.12971 -1.11563 -1.10657 -1.09452 -1.08242 -1.0667 -1.05813 -1.03743 -1.02778 -1.00737 -0.993607 -0.978668 -0.965012 -0.945323 -0.925171 -0.903361 -0.885223 -0.873337 -0.849503 -0.833272 -0.806691 -0.795105 -0.773064 -0.746231 -0.716446 -0.690735 -0.671178 -0.646999 -0.631027 -0.607616 -0.0747552 -1.49463 -1.49463 -1.49463
-1.49463 -1.49463 -0.270535 -0.0787598 -0.48365 -0.500717 -0.3638 -0.538406 -0.565918 -0.530815 -0.600037 -0.624649 -0.57399 -0.623802 -0.683685 -0.666435 -0.710373 -0.711021 -0.754654 -0.761673 -0.785965 -0.779259 -0.820503 -0.825096 -0.858429 -0.879791 -0.878098 -0.872978 -0.922256 -0.931274 -0.922129 -0.963943 -0.932709 -0.962433 -0.989059 -0.956383 -1.01206 -0.975456 -0.995483 -1.04361 -0.997742 -1.05597 -1.01733 -1.02419 -1.06947 -1.06772 -1.08112 -1.07935 -0.489576 0.0142059 0.0108693 0.00849915 0.01017 0.0067393 0.00984192 0.00749969 0.00189209 0.00330607 -0.00169373 0.00427246 -0.000661214 0.00364685 -0.00132751 -0.0020752 -0.00280762 -0.00485992 -0.00012207 -0.00551351 -0.00445557 -0.00532532 -0.00153605 -0.0042572 -0.0108032 -0.00972748 -0.0111847 -0.00717163 -0.013298 -0.00738525 -0.0113831 -0.00879415 -0.0106506 -0.0140457 -0.0108083 -0.0174103 -0.0102463 -0.0167033 -0.0135803 -0.0167542 -0.0180461 -0.0199203 -0.0195313 -0.0208689 -0.0236511 -0.0225449 -0.0244751 -0.0229187 -0.0291239 -0.0244446 -0.0256958 -0.0258687 -0.0333862 -0.0302963 -0.0289459 -0.0315857 -0.0290629 -0.0352173 -0.0330658 -0.0333506 -0.0323334 -0.0351448 -0.0342865 -0.0369949 -0.0356191 -0.0425034 -0.0407639 -0.0401103 -0.042244 -0.0401802 -0.0395508 -0.0397186 -0.0424728 -0.0394135 -0.0444743 -0.0403214 -0.0446523 -0.0430069 -0.047184 -0.0454407 -0.0508881 -0.0465851 -0.0486526 -0.048645 -0.0516052 -0.0505269 -0.0527878 -0.0547333 -0.0510483 -0.0548096 -0.0550944 -0.0902557 -1.49463 -1.49463 -1.49463 -1.49463 -1.17336 -1.17071 -1.17738 -1.15422 -1.17667 -1.1818 -1.18529 -1.18039 -1.17919 -1.17382 -1.16959 -1.16074 -1.15747 -1.14705 -1.13808 -1.13059 -1.12134 -1.11461 -1.10141 -1.08444 -1.07041 -1.05561 -1.04111 -1.03241 -1.00883 -0.999489 -0.97789 -0.964027 -0.949509 -0.923238 -0.907856 -0.884384 -0.871847 -0.850807 -0.83744 -0.812983 -0.7938 -0.769526 -0.741201 -0.713877 -0.690048 -0.674118 -0.646576 -0.631119 -0.608429 -0.120119 -1.49463 -1.49463 -1.49463
-1.49463 -1.49463 -0.190025 -0.0858525 -0.486618 -0.164192 -1.49463 -1.49463 -1.49463 -1.49463 -1.49463 -1.49463 -1.49463 -1.49463 -1.49463 -1.49463 -1.49463 -1.49463 -1.49463 -1.49463 -1.49463 -1.49463 -1.49463 -1.49463 -1.49463 -0.819893 -1.49463 -1.49463 -1.49463 -1.49463 -1.49463 -1.49463 -1.49463 -1.49463 -1.49463 -1.49463 -1.49463 -1.49463 -1.49463 -1.49463 -1.49463 -1.49463 -1.49463 -1.49463 -1.49463 -1.07608 -1.0817 -1.08038 -0.56288 0.0103302 0.0121104 0.00740051 0.00975037 0.00469971 0.00921631 0.00415039 0.00746918 0.00574239 -0.00180054 0.0027771 -0.00102743 0.0191879 -0.00306702 -0.00198364 -0.0091629 -0.00636292 -0.00140381 -0.00615438 -0.00180817 -0.00682068 -0.00752767 -0.00756073 -0.0127411 -0.00796127 -0.0121918 -0.00907135 -0.0145226 -0.00883484 -0.0128632 -0.0131327 -0.0166779 -0.0182343 -0.0132446 -0.017952 -0.0162659 -0.0188293 -0.0140381 -0.0179138 -0.0200602 -0.0197296 -0.0237198 -0.0237389 -0.0255661 -0.0262756 -0.0273539 -0.0251923 -0.0287984 -0.0271912 -0.029892 -0.0290019 -0.0287933 -0.0325775 -0.0302582 -0.0343704 -0.0301208 -0.0338593 -0.0294266 -0.0331523 -0.0309143 -0.0370839 -0.0347672 -0.040863 -0.0380351 -0.0407104 -0.0410156 -0.0385628 -0.0415421 -0.042277 -0.0427704 -0.041996 -0.0454102 -0.040535 -0.0456187 -0.0435181 -0.049174 -0.0427399 -0.0483348 -0.0462875 -0.0494919 -0.0478554 -0.0495605 -0.0523631 -0.0527267 -0.052948 -0.0521698 -0.0549088 -0.0529022 -0.0579376 -0.0542857 -0.0748901 -1.49463 -1.49463 -1.49463 -1.49463 -1.17363 -1.17475 -1.18083 -1.17937 -1.18243 -1.18204 -1.18787 -1.18102 -1.18106 -1.17679 -1.1712 -1.16261 -1.15713 -1.14719 -1.14349 -1.13089 -1.11741 -1.10941 -1.10014 -1.0892 -1.06995 -1.05925 -1.04255 -1.02897 -1.01535 -1.00013 -0.978144 -0.967972 -0.950455 -0.931132 -0.910772 -0.890739 -0.874977 -0.854996 -0.839589 -0.812805 -0.799911 -0.777044 -0.744247 -0.717258 -0.691673 -0.677465 -0.650021 -0.634964 -0.610172 -0.140514 -1.49463 -1.49463 -1.49463
-1.49463 -1.49463 -0.317734 -0.21224 -0.48439 -0.121997 -1.49463 -1.49463 -1.49463 -1.49463 -1.49463 -1.49463 -1.49463 -1.49463 -1.49463 -1.49463 -1.49463 -1.49463 -1.49463 -1.49463 -1.49463 -1.49463 -1.49463 -1.49463 -1.49463 -0.820068 -1.49463 -1.49463 -1.49463 -1.49463 -1.49463 -1.49463 -1.49463 -1.49463 -1.49463 -1.49463 -1.49463 -1.49463 -1.49463 -1.49463 -1.49463 -1.49463 -1.49463 -1.49463 -1.49463 -1.0839 -1.08226 -1.08417 -0.488063 0.00954437 0.00950623 0.00674438 0.00849915 0.00400798 0.00953674 0.0718269 0.262466 -1.49463 0.143341 0.216888 -1.49463 -1.49463 -1.49463 0.0382996 0.131096 -1.49463 0.0644836 0.0456848 0.230408 -1.49463 -0.00531006 -0.00904846 -0.0102844 -0.00693512 -0.0127411 -0.0105286 -0.0145925 -0.0093689 -0.0160675 -0.0133667 -0.0164719 -0.0178299 -0.0127563 -0.0197945 -0.0172424 -0.0211283 -0.018692 -0.0221329 0.0791893 0.134598 0.216492 0.245712 0.094696 0.201416 0.0649185 0.206894 -0.0115967 0.21463 0.224045 0.0566483 0.193695 -1.49463 -0.00317383 -0.0206146 -0.0286407 -0.034083 -0.0285339 -0.0367025 -0.0332336 -0.0374044 -0.0365295 -0.0399857 -0.0388082 -0.0392685 -0.0437622 -0.0413742 -0.039917 -0.0405884 -0.0450134 -0.0438538 -0.0483322 -0.0444031 0.0114326 0.0624771 -0.0490723 0.0928802 0.0278091 -1.49463 -0.0122299 0.0602417 0.0549316 -0.0516815 0.056633 0.0522766 -0.0523834 0.055954 0.00933838 -0.0562515 -0.0570577 -1.49463 -1.49463 -1.49463 -1.49463 -1.49463 -1.17286 -1.18064 -1.18207 -0.524085 -1.092 -1.1783 -1.49463 -1.14959 -1.11353 -1.09329 -1.08498 -1.11163 -1.10773 -1.49463 -1.08532 -1.03841 -1.07191 -1.02443 -1.03931 -1.07881 -0.992538 -1.00443 -0.982864 -0.973526 -1.01567 -0.983231 -0.942017 -0.92627 -0.903328 -0.923218 -0.838089 -0.861443 -0.822388 -0.81237 -0.836456 -0.779465 -0.724182 -0.753637 -0.715775 -0.686256 -0.661995 -0.671158 -0.642868 -0.637268 -0.612202 -0.063633 -1.49463 -1.49463 -1.49463
-1.49463 -1.49463 -0.274597 -0.138334 -0.487625 -0.18246 -0.423859 -1.49463 -1.49463 -1.49463 -1.49463 -1.49463 -1.49463 -1.49463 -1.49463 -1.49463 -1.49463 -1.49463 -1.49463 -1.49463 -1.49463 -1.49463 -1.49463 -1.49463 -1.49463 -0.821297 -1.49463 -1.49463 -1.49463 -1.49463 -1.49463 -1.49463 -1.49463 -1.49463 -1.49463 -1.49463 -1.49463 -1.49463 -1.49463 -1.49463 -1.49463 -1.49463 -1.49463 -1.49463 -1.49463 -1.08482 -1.08649 -1.08754 -0.562637 0.00964355 0.0105794 0.00525665 0.00672913 0.00271606 0.00800323 0.115573 -1.49463 -1.49463 -1.49463 -1.49463 -1.49463 -1.49463 -1.49463 -1.49463 -1.49463 -1.49463 -1.49463 -1.49463 -1.49463 -1.49463 -0.00248718 -0.00842285 -0.0147705 -0.00999832 -0.0119553 -0.00739288 -0.0148671 -0.00972748 -0.0180054 -0.0175552 -0.0152232 -0.019722 -0.0132904 -0.0224915 -0.0170822 -0.0214081 -0.0192108 -0.0242767 0.0952332 -1.49463 -1.49463 -1.49463 -1.49463 -1.49463 -1.49463 -1.49463 -1.49463 -1.49463 -1.49463 -1.49463 -1.49463 -1.49463 -1.49463 -0.0353546 -0.0319875 -0.0351715 -0.0335312 -0.0389862 -0.0392151 -0.0387828 -0.0374832 -0.0403595 -0.0403188 -0.0415726 -0.0446625 -0.0425301 -0.0431366 -0.0425568 -0.0451965 -0.0448914 -0.0453568 -0.0448608 0.0368042 -1.49463 -1.49463 -1.49463 -1.49463 -1.49463 -1.49463 -1.49463 -1.49463 -1.49463 -1.49463 -1.49463 -1.49463 -1.49463 -1.49463 -0.0605316 -0.057958 -1.49463 -1.49463 -1.49463 -1.49463 -1.49463 -1.17677 -1.17859 -1.18354 -0.230028 -1.49463 -1.49463 -1.49463 -1.49463 -1.49463 -1.49463 -1.49463 -1.49463 -1.49463 -1.49463 -1.49463 -1.49463 -1.49463 -1.49463 -1.49463 -1.49463 -1.49463 -1.49463 -0.988106 -0.919632 -1.49463 -1.49463 -1.49463 -1.49463 -1.49463 -1.49463 -1.49463 -1.49463 -1.49463 -1.49463 -1.49463 -1.49463 -1.49463 -1.49463 -1.49463 -1.49463 -1.49463 -1.49463 -0.645172 -0.636879 -0.613464 -0.116188 -1.49463 -1.49463 -1.49463
-1.49463 -1.49463 -0.351428 -0.19523 -0.487862 -0.0477871 -0.425812 -1.49463 -1.49463 -1.49463 -1.49463 -1.49463 -1.49463 -1.49463 -1.49463 -1.49463 -1.49463 -1.49463 -1.49463 -1.49463 -1.49463 -1.49463 -1.49463 -1.49463 -1.49463 -0.823692 -1.49463 -1.49463 -1.49463 -1.49463 -1.49463 -1.49463 -1.49463 -1.49463 -1.49463 -1.49463 -1.49463 -1.49463 -1.49463 -1.49463 -1.49463 -1.49463 -1.49463 -1.49463 -1.49463 -1.08074 -1.08705 -1.08531 -0.487582 0.00574493 0.00384521 0.000976563 0.0061264 0.000330607 0.00418091 0.0698013 -1.49463 -1.49463 -1.49463 -1.49463 -1.49463 -1.49463 -1.49463 -1.49463 -1.49463 -1.49463 -1.49463 -1.49463 -1.49463 -1.49463 -0.00621033 -0.0114594 -0.0135193 -0.0100555 -0.0142899 -0.00982666 -0.0152028 -0.0123138 -0.0195236 -0.017601 -0.0155792 -0.0207672 -0.0172348 -0.0212746 -0.0183411 -0.02152 -0.0188293 -0.0215607 0.0994049 -1.49463 -1.49463 -1.49463 -1.49463 -1.49463 -1.49463 -1.49463 -1.49463 -1.49463 -1.49463 -1.49463 -1.49463 -1.49463 -1.49463 -0.0383301 -0.0328369 -0.0365143 -0.0335846 -0.0391579 -0.0362015 -0.0417989 -0.037262 -0.0426941 -0.0404256 -0.0433502 -0.0437164 -0.0435638 -0.0463409 -0.0434163 -0.0518036 -0.0447439 -0.0512848 -0.0461502 0.0806915 -1.49463 -1.49463 -1.49463 -1.49463 -1.49463 -1.49463 -1.49463 -1.49463 -1.49463 -1.49463 -1.49463 -1.49463 -1.49463 -1.49463 -0.0622559 -0.0605698 -1.49463 -1.49463 -1.49463 -1.49463 -1.49463 -1.17912 -1.18299 -1.18684 -0.389721 -1.49463 -1.49463 -1.49463 -1.49463 -1.49463 -1.49463 -1.49463 -1.49463 -1.49463 -1.49463 -1.49463 -1.49463 -1.49463 -1.49463 -1.49463 -1.49463 -1.49463 -1.49463 -0.992249 -0.918793 -1.49463 -1.49463 -1.49463 -1.49463 -1.49463 -1.49463 -1.49463 -1.49463 -1.49463 -1.49463 -1.49463 -1.49463 -1.49463 -1.49463 -1.49463 -1.49463 -1.49463 -1.49463 -0.643425 -0.637703 -0.613712 -0.135327 -1.49463 -1.49463 -1.49463
-1.49463 -1.49463 -0.372157 -0.122618 -0.488632 -0.155635 -0.42511 -1.49463 -1.49463 -1.49463 -1.49463 -1.49463 -1.49463 -1.49463 -1.49463 -1.49463 -1.49463 -1.49463 -1.49463 -1.49463 -1.49463 -1.49463 -1.49463 -1.49463 -1.49463 -0.832133 -1.49463 -1.49463 -1.49463 -1.49463 -1.49463 -1.49463 -1.49463 -1.49463 -1.49463 -1.49463 -1.49463 -1.49463 -1.49463 -1.49463 -1.49463 -1.49463 -1.49463 -1.49463 -1.49463 -1.07347 -1.08944 -1.0887 -0.559266 0.00512695 0.00768534 -0.0030899 0.00645447 -0.000793457 0.00173187 0.112442 -1.49463 -1.49463 -1.49463 -1.49463 -1.49463 -1.49463 -1.49463 -1.49463 -1.49463 -1.49463 -1.49463 -1.49463 -1.49463 -1.49463 -0.00721741 -0.0109253 -0.0158691 -0.0101471 -0.0155182 -0.0137939 -0.0165863 -0.0156555 -0.0190582 -0.0190735 -0.0179647 -0.0217209 -0.0170593 -0.0216268 -0.0201645 -0.0222575 -0.019371 -0.0256958 0.0755402 -1.49463 -1.49463 -1.49463 -1.49463 -1.49463 -1.49463 -1.49463 -1.49463 -1.49463 -1.49463 -1.49463 -1.49463 -1.49463 -1.49463 -0.0385132 -0.0327988 -0.0379028 -0.0330811 -0.0385234 -0.0405579 -0.043026 -0.036972 -0.0422668 -0.0424347 -0.0456314 -0.0423279 -0.0418599 -0.049736 -0.0466881 -0.0509109 -0.0457077 -0.0504812 -0.0475311 0.0628082 -1.49463 -1.49463 -1.49463 -1.49463 -1.49463 -1.49463 -1.49463 -1.49463 -1.49463 -1.49463 -1.49463 -1.49463 -1.49463 -1.49463 -0.062233 -0.0607859 -1.49463 -1.49463 -1.49463 -1.49463 -1.49463 -1.18014 -1.18977 -1.18758 -0.267774 -1.49463 -1.49463 -1.49463 -1.49463 -1.49463 -1.49463 -1.49463 -1.49463 -1.49463 -1.49463 -1.49463 -1.49463 -1.49463 -1.49463 -1.49463 -1.49463 -1.49463 -1.49463 -0.993683 -0.913345 -1.49463 -1.49463 -1.49463 -1.49463 -1.49463 -1.49463 -1.49463 -1.49463 -1.49463 -1.49463 -1.49463 -1.49463 -1.49463 -1.49463 -1.49463 -1.49463 -1.49463 -1.49463 -1.49463 -0.645976 -0.616203 -0.099135 -1.49463 -1.49463 -1.49463
-1.49463 -1.49463 -0.339487 -0.0695648 -0.492111 -0.0563856 -0.427696 -1.49463 -1.49463 -1.49463 -1.49463 -1.49463 -1.49463 -1.49463 -1.49463 -1.49463 -1.49463 -1.49463 -1.49463 -1.49463 -1.49463 -1.49463 -1.49463 -1.49463 -1.49463 -0.812464 -1.49463 -1.49463 -1.49463 -1.49463 -1.49463 -1.49463 -1.49463 -1.49463 -1.49463 -1.49463 -1.49463 -1.49463 -1.49463 -1.49463 -1.49463 -1.49463 -1.49463 -1.49463 -1.49463 -1.08387 -1.09148 -1.08973 -0.485394 0.00455475 0.00368245 -0.00114441 0.00193787 -0.00177511 0.00202942 0.0702171 -1.49463 -1.49463 -1.49463 -1.49463 -1.49463 -1.49463 -1.49463 -1.49463 -1.49463 -1.49463 -1.49463 -1.49463 -1.49463 -1.49463 -1.49463 -0.0115967 -0.0178146 -0.0120697 -0.0158335 -0.0127258 -0.015976 -0.0161438 -0.0182495 -0.0221787 -0.0181478 -0.0199585 -0.0166855 -0.0239614 -0.0207062 -0.0245514 -0.0198669 -0.0248718 0.0808067 -1.49463 -1.49463 -1.49463 -1.49463 -1.49463 -1.49463 -1.49463 -1.49463 -1.49463 -1.49463 -1.49463 -1.49463 -1.49463 -1.49463 -0.0399628 -0.0351257 -0.0382996 -0.0367432 -0.0409648 -0.0375748 -0.0444489 -0.0388489 -0.0435791 -0.0430717 -0.0461121 -0.0489807 -0.0456746 -0.0503845 -0.0482788 -0.0503845 -0.0461578 -0.0508041 -0.0493088 0.0605392 -1.49463 -1.49463 -1.49463 -1.49463 -1.49463 -1.49463 -1.49463 -1.49463 -1.49463 -1.49463 -1.49463 -1.49463 -1.49463 -1.49463 -0.0653381 -0.0595652 -1.49463 -1.49463 -1.49463 -1.49463 -1.49463 -1.1795 -1.18714 -1.18834 -0.371784 -1.49463 -1.49463 -1.49463 -1.49463 -1.49463 -1.49463 -1.49463 -1.49463 -1.49463 -1.49463 -1.49463 -1.49463 -1.49463 -1.49463 -1.49463 -1.49463 -1.49463 -1.49463 -0.995293 -0.916573 -1.49463 -1.49463 -1.49463 -1.49463 -1.49463 -1.49463 -1.49463 -1.49463 -1.49463 -1.49463 -1.49463 -1.49463 -1.49463 -1.49463 -1.49463 -1.49463 -1.49463 -1.49463 -1.49463 -0.644428 -0.614868 -0.0797679 -1.49463 -1.49463 -1.49463
-1.49463 -1.49463 -0.105908 -0.479736 -1.49463 -0.174013 -0.424286 -1.49463 -1.49463 -1.49463 -1.49463 -1.49463 -1.49463 -1.49463 -1.49463 -1.49463 -1.49463 -1.49463 -1.49463 -1.49463 -1.49463 -1.49463 -1.49463 -1.49463 -1.49463 -0.834646 -1.49463 -1.49463 -1.49463 -1.49463 -1.49463 -1.49463 -1.49463 -1.49463 -1.49463 -1.49463 -1.49463 -1.49463 -1.49463 -1.49463 -1.49463 -1.49463 -1.49463 -1.49463 -1.49463 -1.079 -1.09073 -1.09074 -0.591928 0.000656128 0.00400289 -0.000640869 0.00341797 -0.00275675 0.00125885 0.111334 -1.49463 -1.49463 -1.49463 -1.49463 -1.49463 -1.49463 -1.49463 -1.49463 -1.49463 -1.49463 -1.49463 -1.49463 -1.49463 -1.49463 -1.49463 -0.0137367 -0.0215759 -0.0144577 -0.01916 -0.0151062 -0.0190175 -0.0144043 -0.0210724 -0.0237885 -0.0203743 -0.023262 -0.0181427 -0.0238902 -0.0184784 -0.0266457 -0.0215225 -0.0267792 0.0762451 -1.49463 -1.49463 -1.49463 -1.49463 -1.49463 -1.49463 -1.49463 -1.49463 -1.49463 -1.49463 -1.49463 -1.49463 -1.49463 -1.49463 -0.0413818 -0.0356064 -0.0411682 -0.0377197 -0.0439097 -0.0396271 -0.0440598 -0.0425262 -0.0463562 -0.0433146 -0.0475006 -0.0491791 -0.0459391 -0.0512695 -0.0477956 -0.0517502 -0.0493469 -0.0520986 -0.0479126 0.0668884 -1.49463 -1.49463 -1.49463 -1.49463 -1.49463 -1.49463 -1.49463 -1.49463 -1.49463 -1.49463 -1.49463 -1.49463 -1.49463 -0.0640564 -0.0648575 -0.0621758 -1.49463 -1.49463 -1.49463 -1.49463 -1.49463 -1.18326 -1.18285 -1.20002 -0.356546 -1.49463 -1.49463 -1.49463 -1.49463 -1.49463 -1.49463 -1.49463 -1.49463 -1.49463 -1.49463 -1.49463 -1.49463 -1.49463 -1.49463 -1.49463 -1.49463 -1.49463 -1.49463 -0.999451 -0.918655 -1.49463 -1.49463 -1.49463 -1.49463 -1.49463 -1.49463 -1.49463 -1.49463 -1.49463 -1.49463 -1.49463 -1.49463 -1.49463 -1.49463 -1.49463 -1.49463 -1.49463 -1.49463 -1.49463 -0.646749 -0.61578 -0.111669 -1.49463 -1.49463 -1.49463
-1.49463 -1.49463 -0.0478385 -0.478002 -0.495842 -0.0555077 -0.42543 -1.49463 -1.49463 -1.49463 -1.49463 -1.49463 -1.49463 -1.49463 -1.49463 -1.49463 -1.49463 -1.49463 -1.49463 -1.49463 -1.49463 -1.49463 -1.49463 -1.49463 -1.49463 -0.813777 -1.49463 -1.49463 -1.49463 -1.49463 -1.49463 -1.49463 -1.49463 -1.49463 -1.49463 -1.49463 -1.49463 -1.49463 -1.49463 -1.49463 -1.49463 -1.49463 -1.49463 -1.49463 -1.49463 -1.08099 -1.09015 -1.09268 -0.451828 -0.000404358 0.00120544 -0.00285339 0.00255585 -0.0020752 -0.00678507 0.0691185 -1.49463 -1.49463 -1.49463 -1.49463 -1.49463 -1.49463 -1.49463 -1.49463 -1.49463 -1.49463 -1.49463 -1.49463 -1.49463 -1.49463 -1.49463 -0.015007 -0.0207596 -0.0150146 -0.0196838 -0.0179825 -0.0202688 -0.0199661 -0.0230026 -0.0243607 -0.022377 -0.0292816 -0.0223312 -0.0271556 -0.021759 -0.0270589 -0.0254974 -0.0293274 0.0576538 -1.49463 -1.49463 -1.49463 -1.49463 -1.49463 -1.49463 -1.49463 -1.49463 -1.49463 -1.49463 -1.49463 -1.49463 -1.49463 -1.49463 -0.0431747 -0.0364532 -0.042455 -0.0402298 -0.0441844 -0.0401001 -0.0445608 -0.0431976 -0.047287 -0.0465393 -0.0465088 -0.0482941 -0.0486336 -0.0519333 -0.0508016 -0.052597 -0.0511475 -0.0532341 -0.0526962 0.0681763 -1.49463 -1.49463 -1.49463 -1.49463 -1.49463 -1.49463 -1.49463 -1.49463 -1.49463 -1.49463 -1.49463 -1.49463 -1.49463 -0.0749969 -0.064743 -0.0640335 -1.49463 -1.49463 -1.49463 -1.49463 -1.49463 -1.18404 -1.18475 -1.19725 -0.327738 -1.49463 -1.49463 -1.49463 -1.49463 -1.49463 -1.49463 -1.49463 -1.49463 -1.49463 -1.49463 -1.49463 -1.49463 -1.49463 -1.49463 -1.49463 -1.49463 -1.49463 -1.49463 -0.999023 -0.919113 -1.49463 -1.49463 -1.49463 -1.49463 -1.49463 -1.49463 -1.49463 -1.49463 -1.49463 -1.49463 -1.49463 -1.49463 -1.49463 -1.49463 -1.49463 -1.49463 -1.49463 -1.49463 -1.49463 -0.647008 -0.618065 -0.0940413 -1.49463 -1.49463 -1.49463
-1.49463 -1.49463 0.00244577 -0.482152 -1.49463 -0.168639 -1.49463 -1.49463 -1.49463 -1.49463 -1.49463 -1.49463 -1.49463 -1.49463 -1.49463 -1.49463 -1.49463 -1.49463 -1.49463 -1.49463 -1.49463 -1.49463 -1.49463 -1.49463 -1.49463 -0.826528 -1.49463 -1.49463 -1.49463 -1.49463 -1.49463 -1.49463 -1.49463 -1.49463 -1.49463 -1.49463 -1.49463 -1.49463 -1.49463 -1.49463 -1.49463 -1.49463 -1.49463 -1.49463 -1.49463 -1.08844 -1.09278 -1.09555 -0.588663 -0.00144958 -0.000595093 -0.00556946 -0.00102234 -0.00247955 -0.00492859 0.111694 -1.49463 -1.49463 -1.49463 -1.49463 -1.49463 -1.49463 -1.49463 -1.49463 -1.49463 -1.49463 -1.49463 -1.49463 -1.49463 -1.49463 0.260162 0.105865 0.146713 0.15097 -0.0210215 -0.0185089 -0.023819 -0.0236003 -0.0235519 -0.0267334 -0.022934 -0.0279694 -0.0228424 -0.027715 -0.0236435 -0.0302582 -0.0255737 -0.0309601 0.100388 -1.49463 -1.49463 -1.49463 -1.49463 -1.49463 -1.49463 -1.49463 -1.49463 -1.49463 -1.49463 -1.49463 -1.49463 -1.49463 -1.49463 -0.0427704 -0.0410919 -0.0451406 0.0986633 -0.0454407 -0.0417023 0.048172 -0.0475693 0.246943 -0.0466665 -0.0503998 -0.049614 -0.0506592 -0.057251 -0.0494283 -0.055397 -0.0511322 -0.0565135 -0.0519943 0.0693792 -1.49463 -1.49463 -1.49463 -1.49463 -1.49463 -1.49463 -1.49463 -1.49463 -1.49463 -1.49463 -1.49463 -1.49463 -1.49463 -0.0649261 -0.0706177 -0.0654373 -1.49463 -1.49463 -1.49463 -1.49463 -1.49463 -0.369507 -1.1869 -1.20181 -0.342104 -1.49463 -1.49463 -1.49463 -1.49463 -1.49463 -1.49463 -1.49463 -1.49463 -1.49463 -1.49463 -1.49463 -1.49463 -1.49463 -1.49463 -1.49463 -1.49463 -1.49463 -1.49463 -1.00049 -0.922867 -1.49463 -1.49463 -1.49463 -1.49463 -1.49463 -1.49463 -1.49463 -1.49463 -1.49463 -1.49463 -1.49463 -1.49463 -1.49463 -1.49463 -1.49463 -1.49463 -1.49463 -1.49463 -1.49463 -0.646969 -0.617457 -0.077727 -1.49463 -1.49463 -1.49463
-1.49463 -1.49463 -0.0946655 -0.48497 -1.49463 -0.200457 -0.201283 -1.49463 -1.49463 -1.49463 -0.511086 -1.49463 -0.574478 -0.585007 -0.609764 -1.49463 -0.666733 -0.707855 -0.708237 -1.49463 -0.754196 -0.786087 -0.810654 -0.832382 -0.845474 -0.857529 -0.883148 -0.881821 -0.890846 -0.892044 -0.911774 -0.909531 -0.923264 -0.933708 -0.897354 -0.938416 -0.939896 -0.955688 -0.964249 -0.947891 -0.988754 -1.49463 -0.988693 -1.01303 -1.49463 -1.08121 -1.09161 -1.09704 -0.448194 -0.00443268 -0.000114441 -0.0067749 -0.00211334 -0.00746155 -0.00457764 0.0691986 -1.49463 -1.49463 -1.49463 -1.49463 -1.49463 -1.49463 -1.49463 -1.49463 -1.49463 -1.49463 -1.49463 -1.49463 -1.49463 -1.49463 0.17168 0.200005 0.235207 0.234322 -0.0227966 -0.0165176 -0.0213776 -0.0211487 -0.0236053 -0.0245285 -0.0229594 -0.0248566 -0.0233917 -0.0277659 -0.0241089 -0.0297801 -0.0278931 -0.0301208 0.0524368 -1.49463 -1.49463 -1.49463 -1.49463 -1.49463 -1.49463 -1.49463 -1.49463 -1.49463 -1.49463 -1.49463 -1.49463 -1.49463 -1.49463 -0.0431976 -0.0420609 0.131436 0.184901 0.165171 0.204031 0.181901 0.162729 0.335937 -0.0490926 -0.0515366 -0.0514526 -0.0508728 -0.0530548 -0.0519918 -0.0535431 -0.0506439 -0.0561574 -0.054718 0.0432053 -1.49463 -1.49463 -1.49463 -1.49463 -1.49463 -1.49463 -1.49463 -1.49463 -1.49463 -1.49463 -1.49463 -1.49463 -1.49463 -0.0693893 -0.0692062 -0.0686595 -1.49463 -1.49463 -1.49463 -1.49463 -1.49463 0.21067 -1.18539 -1.20477 -0.315677 -1.49463 -1.49463 -1.49463 -1.49463 -1.49463 -1.49463 -1.49463 -1.49463 -1.49463 -1.49463 -1.49463 -1.49463 -1.49463 -1.49463 -1.49463 -1.49463 -1.49463 -1.49463 -1.00189 -0.921738 -1.49463 -1.49463 -1.49463 -1.49463 -1.49463 -1.49463 -1.49463 -1.49463 -1.49463 -1.49463 -1.49463 -1.49463 -1.49463 -1.49463 -1.49463 -1.49463 -1.49463 -1.49463 -1.49463 -0.646434 -0.620865 -0.107745 -1.49463 -1.49463 -1.49463
-1.49463 -1.49463 -0.102716 -0.483978 -1.49463 -0.224764 -0.293259 -0.401352 -1.49463 -1.49463 -1.49463 -1.49463 -1.49463 -1.49463 -0.610397 -0.62532 -1.49463 -1.49463 -1.49463 -0.731689 -1.49463 -1.49463 -1.49463 -1.49463 -1.49463 -0.838791 -1.49463 -1.49463 -1.49463 -1.49463 -1.49463 -1.49463 -1.49463 -1.49463 -0.924225 -0.914871 -0.938156 -1.49463 -1.49463 -0.954498 -1.49463 -0.982773 -1.49463 -0.984253 -1.49463 -1.076 -1.09747 -1.09943 -0.586313 -0.00411987 -0.000905355 -0.0067749 -0.0022583 -0.00595093 -0.00441488 0.117108 -1.49463 0.223236 0.190384 0.213013 0.211044 -1.49463 0.2099 0.19136 -1.49463 0.202942 0.19986 -1.49463 -1.49463 -1.49463 0.198795 0.194648 0.213522 0.207082 -0.021815 -0.0214691 -0.0244141 -0.0234782 -0.025322 -0.0269012 -0.0249888 -0.0286102 -0.0248413 -0.031367 -0.0276642 -0.0325063 -0.0297699 -0.0347672 0.107355 -1.49463 -1.49463 -1.49463 -1.49463 -1.49463 -1.49463 -1.49463 -1.49463 -1.49463 -1.49463 -1.49463 -1.49463 -1.49463 -1.49463 -0.0464478 -0.0411682 0.169786 0.179398 0.148743 0.177075 0.198029 0.151145 0.31127 -0.0487976 -0.0534058 -0.0523071 -0.0510915 -0.0540009 -0.0519511 -0.0608368 -0.0529175 -0.0561269 -0.0541916 0.0987732 -1.49463 -1.49463 -1.49463 -1.49463 -1.49463 -1.49463 -1.49463 -1.49463 -1.49463 -1.49463 -1.49463 -1.49463 -1.49463 -0.0738602 -0.0709534 -0.0694122 -1.49463 -1.49463 -1.49463 -1.49463 -1.49463 0.178106 -1.18822 -1.20271 -0.329986 -1.49463 -1.49463 -1.49463 -1.49463 -1.49463 -1.49463 -1.06728 -1.49463 -1.49463 -1.49463 -1.49463 -1.49463 -1.49463 -1.49463 -1.49463 -1.49463 -1.49463 -1.49463 -1.00224 -0.967804 -1.49463 -1.49463 -1.49463 -1.49463 -1.49463 -1.49463 -1.49463 -1.49463 -1.49463 -1.49463 -1.49463 -1.49463 -1.49463 -1.49463 -1.49463 -1.49463 -1.49463 -1.49463 -1.49463 -0.651377 -0.620937 -0.086688 -1.49463 -1.49463 -1.49463
-1.49463 -1.49463 -0.164258 -0.486259 -1.49463 -0.223471 -1.49463 -1.49463 -1.49463 -1.49463 -1.49463 -1.49463 -1.49463 -1.49463 -1.49463 -0.625519 -1.49463 -1.49463 -1.49463 -1.49463 -1.49463 -1.49463 -1.49463 -1.49463 -1.49463 -0.831322 -1.49463 -1.49463 -1.49463 -1.49463 -1.49463 -1.49463 -1.49463 -1.49463 -1.49463 -0.915527 -1.49463 -1.49463 -1.49463 -1.49463 -1.49463 -1.49463 -1.49463 -1.49463 -1.49463 -1.08745 -1.09858 -1.10144 -0.468984 -0.00219727 0.00190735 -0.00712077 -0.00241089 -0.00862122 -0.00796 0.0713196 0.19693 0.19725 -1.49463 0.191849 0.207703 0.185471 0.196945 0.191732 0.177582 0.201035 0.190437 0.182205 0.177231 0.236713 0.243472 0.204465 0.230657 0.208584 -0.0244548 -0.0219879 -0.0263824 -0.0243683 -0.0273895 -0.0301895 -0.0281626 -0.0305328 -0.0276642 -0.0324656 -0.0288239 -0.0346578 -0.0303116 -0.0348206 0.0534706 0.189735 0.177231 0.164673 0.170944 0.162193 0.165527 0.171473 0.161316 0.174919 0.170959 0.158859 0.172882 0.168986 -1.49463 -0.0450745 -0.044136 0.121686 0.20199 0.163102 0.202718 0.178193 0.154855 0.331003 -0.0503031 -0.0517502 -0.0564423 -0.0525614 -0.0562057 -0.0543327 -0.0562363 -0.053772 -0.0596008 -0.0569305 0.0694489 0.151138 0.169197 0.137405 0.14389 0.149399 0.156105 0.137466 0.160339 0.139587 0.157036 0.133209 0.152008 0.134109 0.0804596 -0.0736465 -0.0711708 -1.49463 -1.49463 -1.49463 -1.49463 -1.49463 0.329092 -1.18851 -1.20646 -0.352635 -1.08398 -1.13861 -1.49463 -1.11541 -1.11662 -1.09343 -1.09426 -1.076 -1.0745 -1.05541 -1.06618 -1.04354 -1.02985 -1.04229 -1.03645 -1.03058 -0.996368 -0.996643 -0.999512 -0.97346 -0.956955 -0.954712 -0.922089 -0.902323 -0.898697 -0.878204 -0.848302 -0.821663 -0.818741 -0.777756 -0.747139 -0.760643 -0.732335 -0.698189 -0.69517 -0.677956 -0.643867 -0.629023 0.243387 -0.650318 -0.620183 -0.102804 -1.49463 -1.49463 -1.49463
-1.49463 -1.49463 -0.0416177 -0.485989 -1.49463 -0.152548 -1.49463 -1.49463 -1.49463 -1.49463 -1.49463 -1.49463 -1.49463 -1.49463 -1.49463 -0.623001 -1.49463 -1.49463 -1.49463 -1.49463 -1.49463 -1.49463 -1.49463 -1.49463 -1.49463 -0.84316 -1.49463 -1.49463 -1.49463 -1.49463 -1.49463 -1.49463 -1.49463 -1.49463 -1.49463 -0.916138 -1.49463 -1.49463 -1.49463 -1.49463 -1.49463 -1.49463 -1.49463 -1.49463 -1.49463 -1.08984 -1.10232 -1.10387 -0.567093 -0.00718689 -0.00108337 -0.00908915 -0.00436401 -0.00833893 -0.00734456 0.115335 -1.49463 -1.49463 -1.49463 -1.49463 -1.49463 -1.49463 -1.49463 0.181259 -1.49463 -1.49463 -1.49463 -1.49463 -1.49463 -1.49463 0.196575 0.197772 0.207739 0.221831 -0.0249329 -0.0193024 -0.0260315 -0.0272878 -0.0279617 -0.0270538 -0.0267995 -0.03125 -0.0268402 -0.0322037 -0.0289078 -0.0344696 -0.0299377 -0.0349121 0.110535 -1.49463 -1.49463 -1.49463 -1.49463 -1.49463 -1.49463 0.175438 -1.49463 -1.49463 -1.49463 -1.49463 -1.49463 -1.49463 -1.49463 -0.0488052 -0.0452881 0.110905 0.182697 0.155031 0.174685 0.201143 0.154596 0.301807 -0.0534286 -0.0509491 -0.056015 -0.0539805 -0.0580597 -0.0555929 -0.0603333 -0.0537796 -0.0591278 -0.0568619 0.0743599 0.16098 -1.49463 -1.49463 -1.49463 0.156723 0.152939 0.14299 0.155792 0.15741 -1.49463 0.146027 0.149307 -1.49463 -0.0618286 -0.073555 -0.070961 -1.49463 -1.49463 -1.49463 -1.49463 -1.49463 0.166322 -1.19228 -1.20839 -0.352264 -1.49463 -1.49463 -1.49463 -1.49463 -1.49463 -1.49463 -1.49463 -1.49463 -1.49463 -1.04015 -1.49463 -1.49463 -1.49463 -1.49463 -1.49463 -1.49463 -1.49463 -1.49463 -1.49463 -0.976418 -1.49463 -1.49463 -1.49463 -1.49463 -1.49463 -1.49463 -1.49463 -1.49463 -0.784828 -0.768524 -1.49463 -1.49463 -1.49463 -1.49463 -1.49463 -1.49463 -1.49463 -1.49463 0.276993 -0.647756 -0.624451 -0.0705801 -1.49463 -1.49463 -1.49463
-1.49463 -1.49463 -0.0785889 -0.485382 -1.49463 -0.225164 -1.49463 -1.49463 -1.49463 -1.49463 -1.49463 -1.49463 -1.49463 -1.49463 -1.49463 -0.626183 -1.49463 -1.49463 -1.49463 -1.49463 -1.49463 -1.49463 -1.49463 -1.49463 -1.49463 -0.856812 -1.49463 -1.49463 -1.49463 -1.49463 -1.49463 -1.49463 -1.49463 -1.49463 -1.49463 -0.913727 -1.49463 -1.49463 -1.49463 -1.49463 -1.49463 -1.49463 -1.49463 -1.49463 -1.49463 -1.08809 -1.10174 -1.1049 -0.501757 -0.00732422 -0.00350952 -0.00928243 -0.00798798 -0.00984192 -0.00901794 0.0972412 -1.49463 -1.49463 -1.49463 -1.49463 -1.49463 -1.49463 -1.49463 0.181046 -1.49463 -1.49463 -1.49463 -1.49463 -1.49463 -1.49463 0.204134 0.187506 0.224127 0.201599 -0.0265198 -0.0221786 -0.0274811 -0.026001 -0.0257568 -0.0312805 -0.0281321 -0.0334015 -0.027771 -0.0337601 -0.0299072 -0.0347544 -0.0322723 -0.037735 0.0594788 -1.49463 -1.49463 -1.49463 -1.49463 -1.49463 -1.49463 0.174438 -1.49463 -1.49463 -1.49463 -1.49463 -1.49463 -1.49463 -1.49463 -0.0473938 -0.0430298 0.0857722 0.196075 0.158796 0.176331 0.171764 0.158416 0.298027 -0.0541229 -0.0528946 -0.0555038 -0.0528666 -0.0584869 -0.0542196 -0.0580139 -0.0551147 -0.0590096 -0.054306 0.0732452 0.210495 -1.49463 -1.49463 -1.49463 -1.49463 -1.49463 0.14122 -1.49463 -1.49463 -1.49463 -1.49463 -1.49463 -1.49463 -0.0686646 -0.0767212 -0.0714989 -1.49463 -1.49463 -1.49463 -1.49463 -1.49463 0.161976 -1.19395 -1.20652 -0.288161 -1.49463 -1.49463 -1.49463 -1.49463 -1.49463 -1.49463 -1.49463 -1.49463 -1.49463 -1.03981 -1.49463 -1.49463 -1.49463 -1.49463 -1.49463 -1.49463 -1.49463 -1.49463 -1.49463 -0.990138 -1.49463 -1.49463 -1.49463 -1.49463 -1.49463 -1.49463 -1.49463 -1.49463 -0.776642 -0.771286 -1.49463 -1.49463 -1.49463 -1.49463 -1.49463 -1.49463 -1.49463 -1.49463 0.348237 -0.654536 -0.624138 -0.0814861 -1.49463 -1.49463 -1.49463
-1.49463 -1.49463 -0.116908 -0.480965 -0.496414 -0.15438 -1.49463 -1.49463 -1.49463 -1.49463 -1.49463 -1.49463 -1.49463 -1.49463 -1.49463 -0.628464 -1.49463 -1.49463 -1.49463 -1.49463 -1.49463 -1.49463 -1.49463 -1.49463 -0.795578 -0.855423 -1.49463 -1.49463 -1.49463 -1.49463 -1.49463 -1.49463 -1.49463 -1.49463 -1.49463 -0.916412 -1.49463 -1.49463 -1.49463 -1.49463 -1.49463 -1.49463 -1.49463 -1.49463 -1.49463 -1.09238 -1.10698 -1.10575 -0.527902 -0.0098114 -0.00254822 -0.0112101 -0.00741577 -0.0113449 -0.0106913 0.0992126 -1.49463 -1.49463 -1.49463 -1.49463 -1.49463 -1.49463 -1.49463 0.179565 -1.49463 -1.49463 -1.49463 -1.49463 -1.49463 -1.49463 0.201645 0.185456 0.20369 0.222225 -0.0279948 -0.0236664 -0.0289459 -0.0280685 -0.0299606 -0.0336456 -0.0278778 -0.0332565 -0.0311356 -0.0347595 -0.0309067 -0.035553 -0.0348867 -0.037262 0.113739 -1.49463 -1.49463 -1.49463 -1.49463 -1.49463 -1.49463 0.168793 -1.49463 -1.49463 -1.49463 -1.49463 -1.49463 -1.49463 -1.49463 -0.0501709 -0.0457458 0.105229 0.171893 0.157641 0.196357 0.170022 0.160954 0.307964 -0.0555038 -0.0541941 -0.055069 -0.0542297 -0.0589294 -0.0577037 -0.0580215 -0.0578308 -0.0606079 -0.0558929 0.0554047 0.184387 -1.49463 -1.49463 -1.49463 -1.49463 -1.49463 0.140793 -1.49463 -1.49463 -1.49463 -1.49463 -1.49463 -1.49463 -0.0667648 -0.0734177 -0.0717977 -1.49463 -1.49463 -1.49463 -1.49463 -1.49463 0.270921 -1.19331 -1.21012 -0.302199 -1.49463 -1.49463 -1.49463 -1.49463 -1.49463 -1.49463 -1.49463 -1.49463 -1.49463 -1.03869 -1.49463 -1.49463 -1.49463 -1.49463 -1.49463 -1.49463 -1.49463 -1.49463 -1.49463 -0.972107 -0.932541 -1.49463 -0.863449 -0.845062 -1.49463 -1.49463 -1.49463 -0.788391 -0.793343 -0.76324 -0.743713 -0.706573 -1.49463 -0.681534 -1.49463 -1.49463 -1.49463 -1.49463 0.286693 -0.654118 -0.623784 -0.142229 -1.49463 -1.49463 -1.49463
-1.49463 -1.49463 -0.0780097 -0.481476 -0.498367 -0.234445 -0.260986 -1.49463 -0.553101 -0.615433 -0.520065 -0.603012 -0.679596 -0.684082 -0.662575 -0.672867 -0.751434 -0.725967 -0.791962 -0.804306 -0.779541 -0.79924 -0.85199 -0.85527 -0.891388 -0.860275 -0.916138 -0.909729 -0.907684 -0.914886 -0.916267 -0.95211 -0.931763 -0.976639 -0.971024 -0.918869 -0.991096 -0.972168 -1.00122 -1.0183 -0.945129 -1.0209 -1.06787 -1.00294 -1.08672 -1.07869 -1.1052 -1.10696 -0.499834 -0.00720215 -0.00291443 -0.0101827 -0.0080719 -0.0110474 -0.0123596 0.0274506 0.198349 0.0761058 0.0839691 0.184708 0.0995076 0.201538 0.101509 0.106388 0.120865 0.18071 0.184212 0.0920639 0.071907 0.232067 0.195187 0.183456 0.219083 0.202471 -0.0278982 -0.0260315 -0.0308838 -0.0296364 -0.0314331 -0.0332642 -0.0304311 -0.036293 -0.0284271 -0.0362956 -0.0342102 -0.0350444 -0.0328293 -0.037323 0.0608177 0.0875931 0.132607 0.152451 0.18869 0.0963236 0.0769043 0.171944 0.113274 0.159851 0.131111 0.172501 0.146149 0.173553 0.0966034 -0.050209 -0.0471649 0.0831833 0.194031 0.156228 0.172508 0.193631 0.148928 0.290693 -0.0587006 -0.0539754 -0.0587463 -0.0563609 -0.0612183 -0.0576477 -0.0617142 -0.0605621 -0.0622253 -0.0609207 0.104675 0.17775 0.178459 0.180588 0.169235 0.165115 0.172562 0.140839 0.150482 0.142044 -1.49463 0.15773 0.145844 -1.49463 -0.0291519 -0.074707 -0.072113 -1.49463 -1.49463 -1.49463 -1.49463 -1.49463 0.0245533 -1.19591 -1.21052 -0.43794 -1.49463 -1.49463 -1.00578 -0.979919 -1.06522 -1.06985 -1.49463 -1.05092 -1.03665 -1.02987 -1.02809 -1.02341 -1.49463 -1.00056 -0.99408 -0.988693 -0.969284 -1.49463 -0.954697 -0.982456 -0.930537 -0.907023 -0.87307 -0.871201 -0.84948 -0.828888 -0.810781 -0.788376 -0.794044 -0.761866 -0.734472 -0.716324 -0.698071 -0.669393 -0.662018 -0.638645 -0.622787 -0.60611 0.251834 -0.652761 -0.626699 -0.168022 -1.49463 -1.49463 -1.49463
-1.49463 -1.49463 -0.076549 -0.48571 -0.500702 -0.515274 -0.546494 -1.49463 -0.58152 -0.607002 -0.633034 -0.659546 -0.681168 -0.694695 -0.721848 -0.741196 -0.758499 -0.776413 -0.79483 -0.806259 -0.826691 -0.842781 -0.849411 -0.881081 -0.89595 -0.90992 -0.917679 -0.929497 -0.941849 -0.949242 -0.950897 -0.973078 -0.978394 -0.995697 -1.00552 -1.00745 -1.02556 -1.03516 -1.0471 -1.05751 -1.05762 -1.0752 -1.0777 -1.08668 -1.09096 -1.0917 -1.10771 -1.11171 -0.525087 -0.00778198 -0.00562286 -0.0107829 -0.00588989 -0.0123749 -0.0123647 -0.0164185 -0.018219 -0.0136719 -0.019783 -0.0130997 -0.0173035 -0.0171127 -0.0196838 -0.0244141 -0.0191803 -0.0234477 -0.017807 -0.0246836 -0.0227661 0.221451 0.223387 0.185432 0.192057 0.224272 -0.0295512 -0.0238342 -0.0307312 -0.0287882 -0.0305939 -0.033844 -0.032313 -0.0350189 -0.0312195 -0.0374247 -0.034729 -0.0411835 -0.0367279 -0.040863 -0.0454865 -0.0390676 -0.0446777 -0.0391083 -0.0467949 -0.0452118 -0.0488358 -0.0420456 -0.0454788 -0.0469869 -0.0488663 -0.0518036 -0.0428848 -0.0503769 -0.047938 -0.0548248 -0.0476532 0.0612095 0.17487 0.152522 0.188918 0.173041 0.146414 0.301613 -0.0600586 -0.0580037 -0.0618744 -0.057373 -0.0598145 -0.0578995 -0.061676 -0.0596237 -0.0625305 -0.0622864 -0.0663808 -0.0612183 -0.0524038 -0.0640259 0.00634384 -0.0695953 0.0131607 -0.0694478 -0.0545959 -0.0178528 -0.0179647 -0.0762024 -0.0479012 -0.0454788 -0.0748215 -0.0774384 -0.0744705 -1.49463 -1.49463 -1.49463 -1.49463 -1.49463 -0.0305568 -1.19785 -1.20836 -0.349221 -1.20804 -1.13864 -1.19604 -1.11875 -1.1521 -1.15152 -1.11662 -1.13104 -1.09216 -1.10654 -1.09776 -1.04959 -1.0706 -1.02975 -1.06966 -1.02184 -1.0643 -1.0209 -0.999512 -1.01587 -0.967537 -0.953979 -0.932236 -0.911179 -0.91275 -0.877543 -0.837011 -0.838814 -0.857826 -0.797073 -0.769409 -0.767797 -0.723877 -0.721764 -0.706436 -0.696503 -0.651932 -0.641983 0.239869 -0.656184 -0.625443 -0.13237 -1.49463 -1.49463 -1.49463
-1.49463 -1.49463 -0.115377 -0.489929 -0.506271 -0.514618 -0.54542 -1.49463 -0.581146 -0.616539 -0.635361 -0.66375 -0.681793 -0.701202 -0.723785 -0.743515 -0.758499 -0.780327 -0.798752 -0.808083 -0.831696 -0.842331 -0.856728 -0.881283 -0.896835 -0.913055 -0.925949 -0.93454 -0.94944 -0.956985 -0.960136 -0.975479 -0.987366 -1.00189 -1.00911 -1.01086 -1.0263 -1.03757 -1.04491 -1.05625 -1.05843 -1.07384 -1.08102 -1.08769 -1.09219 -1.09274 -1.10665 -1.11504 -0.495415 -0.00730133 -0.00550842 -0.00958761 -0.00974274 -0.0113525 -0.0142161 -0.0156555 -0.0162659 -0.0133362 -0.0179443 -0.0136566 -0.0179062 -0.0167999 -0.0203018 -0.0199127 -0.0169678 -0.0235291 -0.0211182 -0.0219421 -0.0205841 0.109936 0.0615692 0.0834015 0.188547 0.139856 -0.0325317 -0.0294113 -0.0305634 -0.0346527 -0.0343628 -0.0348129 -0.0342611 -0.038826 -0.0312958 -0.0394897 -0.0352631 -0.0409851 -0.0381241 -0.0402222 -0.0434875 -0.042305 -0.0475159 -0.0401077 -0.0475464 -0.0425034 -0.0470543 -0.0450287 -0.0519257 -0.0471853 -0.049118 -0.0513916 -0.0498657 -0.0499115 -0.0526225 -0.0550537 -0.0499573 0.0349986 0.149883 0.0611267 0.128563 0.148693 0.0795956 0.160466 -0.056427 -0.0576172 -0.0618973 -0.0590922 -0.0625916 -0.0592117 -0.0641276 -0.0600662 -0.0637156 -0.0635986 -0.067927 -0.0630035 -0.0680644 -0.0658264 -0.0696869 -0.0676473 -0.0701752 -0.0719147 -0.0701294 -0.0728836 -0.0720787 -0.078186 -0.0744019 -0.0764771 -0.0738525 -0.0764008 -0.0763194 -1.49463 -1.49463 -1.49463 -1.49463 -1.49463 -0.374817 -1.19859 -1.21039 -1.21044 -1.21413 -1.21267 -1.2118 -1.20696 -1.20945 -1.20185 -1.19961 -1.19251 -1.18647 -1.17325 -1.16875 -1.15692 -1.14797 -1.13604 -1.12497 -1.11188 -1.09115 -1.07601 -1.06006 -1.0473 -1.03032 -1.01756 -0.996189 -0.987503 -0.969894 -0.956924 -0.93988 -0.918171 -0.893041 -0.87558 -0.858795 -0.836212 -0.81929 -0.790649 -0.765335 -0.747757 -0.73022 -0.697277 0.209677 -0.65389 -0.625931 -0.210321 -1.49463 -1.49463 -1.49463
-1.49463 -1.49463 -0.122367 -0.252843 -0.504959 -0.519012 -0.55186 -1.49463 -0.575958 -0.608276 -0.638344 -0.663773 -0.68367 -0.698578 -0.725647 -0.746986 -0.760315 -0.783356 -0.802658 -0.807175 -0.827965 -0.846695 -0.858078 -0.884247 -1.49463 -0.912308 -0.930557 -0.937248 -0.952866 -0.962479 -0.964676 -0.986064 -0.989822 -1.00686 -1.01418 -1.0154 -1.03218 -1.03635 -1.05222 -1.0592 -1.06253 -1.07536 -1.07907 -1.08713 -1.09213 -1.09495 -1.10903 -1.11195 -0.518193 -0.00863647 -0.00497437 -0.0108795 -0.00672913 -0.0128555 -0.0126597 -0.0157623 -0.0164185 -0.0106812 -0.0174942 -0.0154419 -0.0188751 -0.0189667 -0.0180817 -0.0223083 -0.02211 -0.022761 -0.0191956 -0.0247294 -0.022995 -0.0274811 -0.029541 -0.0258433 -0.0309982 -0.0280304 -0.0329539 -0.0304413 -0.0350342 -0.0326385 -0.0348892 -0.0386047 -0.0359802 -0.0397186 -0.0341263 -0.0415446 -0.0366974 -0.0412903 -0.0395584 -0.040741 -0.0422058 -0.0402985 -0.0454636 -0.042923 -0.046463 -0.0416565 -0.0497589 -0.0441895 -0.0491791 -0.0480804 -0.0489044 -0.0500488 -0.0483246 -0.0531464 -0.0508931 -0.0571442 -0.0527039 -0.055706 -0.0510788 -0.0572764 -0.053833 -0.0585938 -0.0585988 -0.0585938 -0.0646515 -0.060435 -0.065567 -0.0598297 -0.067131 -0.059906 -0.0656281 -0.0632019 -0.0671997 -0.0644989 -0.0693258 -0.0666122 -0.0702972 -0.0664902 -0.0707855 -0.0708059 -0.0697021 -0.0691935 -0.0730362 -0.0723877 -0.0750122 -0.0801849 -0.0748189 -0.0770798 -0.0756124 -0.0814209 -0.0751088 -1.49463 -1.49463 -1.49463 -1.49463 -1.49463 -1.19887 -1.20004 -1.21206 -1.21144 -1.21494 -1.2134 -1.21306 -1.20906 -1.2094 -1.20467 -1.20255 -1.19022 -1.18746 -1.17744 -1.16859 -1.15622 -1.15257 -1.13729 -1.12244 -1.11261 -1.09774 -1.07792 -1.05935 -1.05024 -1.02943 -1.01924 -0.995438 -0.98613 -0.971455 -0.960114 -0.939036 -0.917379 -0.896805 -0.876282 -0.86231 -0.840294 -0.821964 -0.795573 -0.769939 -0.747993 -0.727104 -0.700089 -0.675346 -0.654675 -0.627113 -0.158629 -1.49463 -1.49463 -1.49463
-0.195677 -0.217449 -0.209094 -0.217184 -0.509308 -0.663223 -0.552727 -1.49463 -0.745193 -0.705811 -1.49463 -0.782466 -0.811386 -0.823441 -0.849091 -0.895538 -0.867065 -0.784363 -0.913528 -0.919868 -0.963234 -1.0488 -0.950577 -0.88092 -1.0351 -1.14409 -0.992661 -1.49463 -1.03595 -1.49463 -1.09117 -1.10452 -1.09129 -1.2634 -1.1435 -1.02679 -1.14983 -1.12813 -1.31062 -1.16691 -1.08685 -1.15749 -1.33305 -1.23177 -1.09315 -1.24522 -1.19218 -1.2508 -0.59966 -0.199515 -0.872382 -0.0766563 -0.0307617 -0.0148773 -0.0171051 -0.0228424 -0.0188751 -0.0917155 -0.0241966 -0.0153503 -0.0466843 -0.0204926 -0.0637868 -0.0689316 -0.0190506 -0.02329 -0.134277 -0.0762062 -0.0685374 -0.029892 -0.0272903 -0.0473442 -0.0315552 -0.0278625 -0.0314789 -0.0541178 -0.0344543 -0.037262 -0.0372467 -0.0390778 -0.0560493 -0.0433044 -0.0397034 -0.0430247 -0.039978 -0.0427094 -0.0442123 -0.0412445 -0.0452271 -0.0452652 -0.0480194 -0.0425262 -0.0850067 -0.0453796 -0.0518595 -0.0478668 -0.052948 -0.0511882 -0.0510254 -0.0555725 -0.053594 -0.0573273 -0.0545502 -0.056694 -0.0545349 -0.0597076 -0.0556717 -0.0590769 -0.05616 -0.0586395 -0.059138 -0.0620804 -0.065094 -0.0603892 -0.0648651 -0.0649923 -0.0666428 -0.0639801 -0.0648956 -0.0627747 -0.0683708 -0.0647125 -0.0697021 -0.0652466 -0.068456 -0.0643768 -0.0694122 -0.0702782 -0.0700531 -0.0695343 -0.0732346 -0.0768585 -0.0755386 -0.0785599 -0.0790304 -0.077713 -0.0786285 -0.0797501 -0.0778605 -1.49463 -1.49463 -1.49463 -1.49463 -1.49463 -1.19969 -1.20129 -1.21043 -1.2113 -1.21647 -1.21533 -1.21627 -1.21234 -1.21161 -1.20407 -1.20181 -1.19331 -1.1906 -1.17798 -1.17159 -1.1585 -1.15126 -1.13966 -1.12685 -1.1141 -1.10205 -1.07957 -1.06238 -1.0543 -1.03423 -1.02329 -1.00065 -0.987282 -0.972087 -0.958801 -0.942434 -0.921844 -0.90124 -0.874977 -0.859177 -0.839447 -0.824509 -0.795368 -0.771586 -0.748688 -0.723206 -0.69637 -0.674202 -0.656306 -0.627773 -0.117429 -1.49463 -1.49463 -1.49463
-0.204683 -0.670227 -0.707031 -1.49463 -0.740044 -0.749664 -0.783264 -0.798294 -0.844421 -0.851021 -0.88147 -0.904521 -0.928619 -1.49463 -0.9758 -0.979469 -1.01645 -1.01339 -1.04289 -1.04047 -1.08017 -1.06197 -1.09946 -1.12164 -1.1161 -1.15716 -1.14864 -1.17546 -1.17405 -1.19105 -1.21253 -1.22827 -1.25119 -1.26675 -1.25323 -1.28111 -1.2757 -1.30688 -1.32362 -1.30401 -1.32907 -1.33094 -1.32809 -1.35508 -1.3449 -1.351 -1.37064 -1.35756 -1.38159 -1.37648 -0.840834 -0.271912 -0.26088 -0.264809 -0.257095 -0.272212 -0.263367 -0.271889 -0.263458 -0.272255 -0.271667 -0.270198 -0.274223 -0.272018 -0.276204 -0.270576 -0.288284 -0.278633 -0.277687 -0.290176 -0.278206 -0.283546 -0.287186 -0.258097 -0.283623 -0.289291 -0.283081 -0.285519 -0.28949 -0.225444 -0.292689 -0.294373 -0.290504 -0.284505 -0.255074 -0.296432 -0.293711 -0.302216 -0.244161 -0.299718 -0.190048 -0.301051 -0.298836 -0.277527 -0.302734 -0.30056 -0.247433 -0.30825 -0.285533 -0.255819 -0.242126 -0.308533 -0.27858 -0.300171 -0.309887 -0.287369 -0.254822 -0.312317 -0.298409 -0.264732 -0.321114 -0.293167 -0.31086 -0.205681 -0.304565 -0.249504 -0.323166 -0.284626 -0.197029 -0.320274 -0.321152 -0.310277 -0.21964 -0.205668 -0.329102 -0.184677 -0.327057 -0.329826 -0.239354 -0.332794 -0.24114 -0.250229 -0.332642 -0.292717 -0.244186 -0.253418 -0.343048 -0.275658 -0.270226 -0.335114 -0.353645 -1.49463 -1.49463 -1.49463 -1.20458 -1.20155 -1.21301 -1.21477 -1.21868 -1.21404 -1.21817 -1.21128 -1.2132 -1.20657 -1.20253 -1.19588 -1.19005 -1.17867 -1.17323 -1.15888 -1.15547 -1.14141 -1.12943 -1.11568 -1.09821 -1.08308 -1.06539 -1.05191 -1.03749 -1.02453 -1.00303 -0.992294 -0.976293 -0.962074 -0.942688 -0.918833 -0.896098 -0.876328 -0.861042 -0.840805 -0.822484 -0.793223 -0.765788 -0.746658 -0.726593 -0.697567 -0.675552 -0.655233 -0.627233 -0.197618 -1.49463 -1.49463 -1.49463
-1.49463 -0.621796 -0.63121 -0.647507 -0.672012 -0.712029 -0.720795 -0.750946 -0.797485 -0.775299 -0.821655 -0.848228 -0.869965 -0.88076 -0.910355 -0.891769 -0.950882 -0.929649 -0.961594 -0.949982 -0.995583 -1.02208 -1.02205 -1.03316 -1.02821 -1.10033 -1.06909 -1.09276 -1.11041 -1.12251 -1.14481 -1.13248 -1.17014 -1.17181 -1.49463 -1.20165 -1.20659 -1.23824 -1.22756 -1.22247 -1.2504 -1.25242 -1.24031 -1.30923 -1.25127 -1.29546 -1.28036 -1.27638 -1.32172 -1.01645 -0.562135 -0.199081 -0.22831 -0.213692 -0.24913 -0.213135 -0.220619 -0.24439 -0.233589 -0.218994 -0.260605 -0.232071 -0.210938 -0.244308 -0.235634 -0.236176 -0.248657 -0.224655 -0.239787 -0.267685 -0.243484 -0.242889 -0.240326 -0.23878 -0.259415 -0.238548 -0.260399 -0.27739 -0.268394 -0.251205 -0.264572 -0.254913 -0.267919 -0.265564 -0.251811 -0.266388 -0.282722 -0.276039 -0.258433 -0.27594 -0.272087 -0.267161 -0.243393 -0.289276 -0.27549 -0.268707 -0.259621 -0.258858 -0.257904 -0.262436 -0.263977 -0.263173 -0.29702 -0.282303 -0.273537 -0.29454 -0.290474 -0.292048 -0.28978 -0.269592 -0.280327 -0.277969 -0.284653 -0.294983 -0.278147 -0.285095 -0.284775 -0.2994 -0.273354 -0.301605 -0.284912 -0.284409 -0.313896 -0.30039 -0.301498 -0.297806 -0.299095 -0.31427 -0.316391 -0.30393 -0.285057 -0.322454 -0.29924 -0.298622 -0.306061 -0.309799 -0.30954 -0.321014 -0.313202 -0.316536 -0.328415 -1.49463 -1.49463 -1.10762 -1.20393 -1.20489 -1.21646 -1.21509 -1.22041 -1.21476 -1.21898 -1.21473 -1.2151 -1.20737 -1.20844 -1.19639 -1.19346 -1.18224 -1.17378 -1.16118 -1.15439 -1.14381 -1.12902 -1.12112 -1.10334 -1.08511 -1.06655 -1.0562 -1.03823 -1.02398 -1.00491 -0.992867 -0.974004 -0.962502 -0.941635 -0.92543 -0.89846 -0.877945 -0.863352 -0.841026 -0.823071 -0.797389 -0.780197 -0.755672 -0.726036 -0.699168 -0.676537 -0.657562 -0.631353 -0.150245 -1.49463 -1.49463 -1.49463
-1.49463 -0.552673 -0.522781 -0.588409 -0.59494 -1.49463 -0.655891 -0.661224 -0.721283 -0.700851 -0.751625 -0.732407 -0.800026 -0.817589 -0.822052 -0.840576 -0.833679 -0.830048 -0.864822 -1.49463 -0.880943 -0.94223 -0.920364 -0.950485 -0.938843 -0.992462 -0.97847 -0.989525 -1.02602 -0.991226 -1.0512 -1.05759 -1.08244 -1.07269 -1.09571 -1.13483 -1.1242 -1.12932 -1.151 -1.15808 -1.1982 -1.15741 -1.19701 -1.18115 -1.1766 -1.20814 -1.21542 -1.21483 -0.930364 -0.540012 -0.133179 -0.138092 -0.13768 -0.123734 -0.167328 -0.154063 -0.155487 -0.159836 -0.129128 -0.167213 -0.150681 -0.142507 -0.134094 -0.158554 -0.122658 -0.155472 -0.138252 -0.12529 -0.147369 -0.140793 -0.157677 -0.165764 -0.173004 -0.14917 -0.150543 -0.184525 -0.143066 -0.192207 -0.163773 -0.149277 -0.185295 -0.163338 -0.188919 -0.17895 -0.162842 -0.163574 -0.194695 -0.17041 -0.166794 -0.191948 -0.171738 -0.174042 -0.191559 -0.194801 -0.182793 -0.186203 -0.196968 -0.179077 -0.194 -0.16584 -0.194748 -0.201279 -0.192774 -0.181099 -0.174889 -0.195073 -0.208191 -0.186691 -0.212105 -0.1903 -0.186562 -0.196523 -0.201518 -0.195663 -0.176712 -0.20649 -0.182907 -0.195152 -0.211945 -0.21225 -0.203785 -0.226196 -0.216469 -0.224111 -0.188942 -0.215622 -0.188545 -0.224617 -0.215103 -0.213257 -0.215973 -0.230522 -0.209572 -0.22079 -0.237785 -0.213066 -0.212184 -0.232033 -0.222926 -0.241646 -1.49463 -1.49463 -1.49463 -1.49463 -1.19858 -1.20745 -1.21707 -1.19698 -1.22264 -1.21762 -1.22093 -1.21686 -1.21811 -1.20837 -1.20557 -1.19684 -1.19769 -1.1832 -1.17816 -1.16558 -1.1592 -1.14687 -1.13418 -1.12189 -1.10892 -1.08667 -1.06682 -1.05978 -1.03959 -1.03015 -1.00792 -0.992622 -0.977287 -0.965042 -0.947576 -0.924393 -0.901998 -0.879128 -0.859782 -0.84111 -0.827698 -0.797859 -0.77538 -0.74511 -0.722117 -0.695857 -0.678123 -0.658259 -0.632137 -0.0880517 -1.49463 -1.49463 -1.49463
-1.49463 -1.49463 -1.49463 -0.470421 -0.495697 -0.559509 -0.565933 -0.58049 -0.609116 -0.602959 -0.67691 -0.644203 -0.708702 -0.67157 -0.72908 -0.708801 -0.743301 -0.752014 -0.773636 -0.777412 -0.771248 -0.852585 -0.812904 -0.867386 -0.824539 -0.888962 -0.88221 -0.889847 -0.905052 -1.49463 -0.924095 -0.97467 -0.974701 -0.972839 -1.01631 -1.02881 -1.02867 -1.03688 -1.08252 -1.05345 -1.10353 -1.08664 -1.12215 -1.10361 -1.10753 -1.09953 -1.11676 -0.693403 -0.400135 0.00619507 -0.0152588 -0.054245 -0.021698 -0.0362091 -0.0451965 -0.0262375 -0.0732346 -0.0440903 -0.0226059 -0.0621719 -0.031517 -0.00749207 -0.0299683 -0.0548096 -0.0158539 -0.0364761 -0.0512848 -0.0472641 -0.0394363 -0.0321655 -0.0702896 -0.0370941 -0.0930634 -0.0765228 -0.0241394 -0.0731888 -0.0664673 -0.0662155 -0.0336304 -0.0838089 -0.0568848 -0.0432816 -0.105591 -0.0783997 -0.0772247 -0.108681 -0.0882339 -0.0509872 -0.104591 -0.0817108 -0.0900803 -0.0877533 -0.0839767 -0.101761 -0.103439 -0.0857544 -0.0935974 -0.0881042 -0.0932515 -0.105255 -0.085144 -0.113739 -0.0935059 -0.0916595 -0.123825 -0.104012 -0.0963287 -0.129822 -0.112722 -0.0941772 -0.11731 -0.103241 -0.115295 -0.0882721 -0.126793 -0.0992355 -0.11407 -0.0941315 -0.116444 -0.0989075 -0.110542 -0.138618 -0.122665 -0.115356 -0.131233 -0.115196 -0.13929 -0.132065 -0.10792 -0.110489 -0.106043 -0.134349 -0.105209 -0.138069 -0.119194 -0.125549 -0.110916 -0.134239 -0.134789 -0.141159 -1.49463 -1.49463 -1.49463 -1.49463 -1.20632 -1.20755 -1.2159 -1.21958 -1.22323 -1.22157 -1.22227 -1.21603 -1.21837 -1.21227 -1.2082 -1.19906 -1.195 -1.1853 -1.18333 -1.16737 -1.16089 -1.14875 -1.1369 -1.1224 -1.10346 -1.08955 -1.0765 -1.05804 -1.04375 -1.03157 -1.00824 -0.996735 -0.979955 -0.965599 -0.94367 -0.921102 -0.898977 -0.880737 -0.862934 -0.842262 -0.823212 -0.796402 -0.767593 -0.747406 -0.726425 -0.697853 -0.679947 -0.659306 -0.631129 -0.17403 -1.49463 -1.49463 -1.49463
-1.49463 -1.49463 -1.49463 -1.49463 -0.414993 -0.45472 -0.476357 -0.488632 -0.539658 -0.52829 -0.557228 -0.566208 -0.605232 -0.603317 -0.627406 -0.635422 -0.667877 -0.68367 -0.675705 -0.69725 -0.699478 -0.749702 -0.750702 -0.757561 -0.75679 -0.77787 -0.789795 -0.82148 -0.8228 -0.8433 -0.843727 -0.869705 -0.886177 -0.889969 -0.922119 -0.918472 -0.948402 -0.93985 -0.976161 -0.969482 -1.01214 -0.995895 -1.00555 -1.02912 -1.01663 -1.02835 -0.619215 -0.375318 0.0778732 0.0804825 0.101738 0.0388336 0.0954819 0.0612488 0.0896606 0.0914688 0.0450516 0.0582123 0.0914612 0.0710449 0.0871811 0.107803 0.0756836 0.0632172 0.0592957 0.0707703 0.0378189 0.0414429 0.0787811 0.0502548 0.0956421 0.0767517 0.0345764 0.0201721 0.0867462 0.0705261 0.0296631 0.0609055 0.0907593 0.0432129 0.0160522 0.0568161 0.00899506 0.0258942 0.0471802 0.00414276 0.0401001 0.0499115 -0.00601959 -0.00947571 0.0389175 -0.00177002 0.00576782 0.0282822 -0.0227814 0.00402832 0.0222117 0.0106201 0.0417709 0.0062027 0.0065155 0.00125631 0.0136185 0.0139618 -0.0208817 -0.0114441 0.00704193 -0.0321884 0.00294495 0.0156479 -0.0127106 -0.0089976 0.00119781 0.0167084 -0.013504 0.0129852 -0.0249329 -0.0089798 0.024292 -0.00884247 -0.0386124 -0.016037 -0.0233358 0.00892639 -0.0345917 0.00134277 -0.0396118 -0.0182037 0.00733948 -0.0299835 -0.0137329 0.00193024 -0.00931295 -0.025444 -0.0144043 -0.00289154 -0.0417074 -0.0245667 -0.0300903 -1.49463 -1.49463 -1.49463 -1.49463 -1.49463 -1.20511 -1.20721 -1.22164 -1.22472 -1.2236 -1.22185 -1.22306 -1.21816 -1.22031 -1.21056 -1.2139 -1.2027 -1.20073 -1.18889 -1.18288 -1.16886 -1.16048 -1.14833 -1.13791 -1.12594 -1.10883 -1.09318 -1.07802 -1.0619 -1.04588 -1.03055 -1.00977 -0.995697 -0.977814 -0.964188 -0.945126 -0.928029 -0.901875 -0.880539 -0.865326 -0.839287 -0.824734 -0.799047 -0.772888 -0.754328 -0.726002 -0.701416 -0.680023 -0.659698 -0.634669 -0.13893 -1.49463 -1.49463 -1.49463
-1.49463 -1.49463 -1.49463 -1.49463 -0.367607 -0.389786 -0.420837 -0.46019 -0.494514 -0.521561 -0.521149 -0.553848 -0.569412 -0.588501 -0.618322 -0.624451 -0.64962 -0.655716 -0.666916 -0.67897 -0.713791 -0.712875 -0.747182 -0.737755 -0.749115 -0.765694 -0.766907 -0.782639 -0.805 -0.799622 -0.823222 -0.844559 -0.863281 -0.878136 -0.883713 -0.896919 -0.910492 -0.92305 -0.951019 -0.951584 -0.976364 -0.981239 -0.987045 -1.00668 -1.0042 -1.02293 -0.541993 0.112602 0.123207 0.119461 0.122498 0.128197 0.106781 0.123116 0.123179 0.109207 0.126701 0.120731 0.121536 0.117134 0.11998 0.11116 0.0903625 0.117416 0.107763 0.106293 0.111282 0.101364 0.113088 0.110519 0.104797 0.105143 0.107887 0.0979055 0.107371 0.0988464 0.108055 0.0988998 0.0922699 0.108208 0.0993919 0.0931549 0.0986023 0.0960999 0.0799866 0.0938187 0.0923106 0.0811615 0.0832062 0.0850487 0.0834503 0.0899506 0.0866496 0.0814514 0.0745926 0.0851593 0.0756378 0.0859324 0.0791473 0.0870819 0.0752563 0.079834 0.0732676 0.0783539 0.0734787 0.0729828 0.0720367 0.0650787 0.0737406 0.0765839 0.0739059 0.0602264 0.074295 0.0662384 0.0723877 0.0670878 0.0728378 0.0630035 0.0627823 0.0651398 0.0534363 0.0550613 0.0560913 0.0483754 0.0561905 0.0522664 0.0442276 0.0522156 0.0484161 0.0445251 0.0393677 0.0532227 0.0521851 0.0140076 0.0387624 0.0424347 0.0414963 0.0417938 0.0381317 -1.49463 -1.49463 -1.49463 -1.49463 -1.49463 -1.21082 -1.20976 -1.22108 -1.22087 -1.22559 -1.22214 -1.22517 -1.2182 -1.2193 -1.21633 -1.21314 -1.20462 -1.20192 -1.19257 -1.18739 -1.1728 -1.16302 -1.15289 -1.14415 -1.12692 -1.11386 -1.09612 -1.08651 -1.06531 -1.04585 -1.03568 -1.01362 -1.00196 -0.982182 -0.966751 -0.947912 -0.924828 -0.904282 -0.879433 -0.863276 -0.839111 -0.828598 -0.799183 -0.780701 -0.753174 -0.725042 -0.700429 -0.681351 -0.663859 -0.633564 -0.131634 -1.49463 -1.49463 -1.49463
-1.49463 -1.49463 -1.49463 -1.49463 -0.354492 -0.389435 -0.39431 -0.332169 -0.474442 -0.505051 -0.526901 -0.554031 -0.523094 -1.49463 -0.559898 -0.628784 -1.49463 -0.660049 -1.49463 -0.658752 -0.728531 -0.7061 -0.73201 -0.670258 -0.682297 -1.49463 -0.694031 -0.710571 -1.49463 -0.793198 -0.786789 -0.738251 -1.49463 -1.49463 -0.878708 -1.49463 -0.910599 -0.930771 -1.49463 -0.953476 -1.49463 -1.49463 -0.983902 -1.00034 -0.95446 -0.297333 -0.434032 0.130283 0.122833 0.132263 0.128204 0.134491 0.123245 0.120682 0.126266 0.128151 0.127762 0.120941 0.164688 0.132889 0.117126 0.111384 0.122116 0.145676 0.112518 0.140732 0.108337 0.124756 0.110313 0.108124 0.116188 0.116928 0.10733 0.105255 0.107018 0.105682 0.103134 0.10763 0.106033 0.107834 0.102165 0.119652 0.0983124 0.101405 0.128136 0.143616 0.100395 0.120148 0.0989838 0.0947647 0.122452 0.103745 0.0957489 0.0988617 0.0937958 0.0868073 0.122643 0.0912069 0.104538 0.0863495 0.0833995 0.0851135 0.0830231 0.0831223 0.08255 0.0801239 0.0789185 0.0749207 0.0801951 0.0472336 0.0830383 0.0764771 0.0752182 0.0733032 0.0718842 0.073054 0.0758362 0.0741628 0.0720062 0.0683441 0.0679932 0.0664825 0.0630112 0.0687663 0.0600891 0.0639038 0.0591431 0.0607554 0.0570984 0.0686874 0.0547562 0.0601196 0.0534719 0.045166 0.0421193 0.0552292 0.0518417 0.058548 0.0493774 -1.49463 -1.49463 -1.49463 -1.49463 -1.49463 -1.20749 -1.21262 -1.22109 -1.22392 -1.22485 -1.22317 -1.22648 -1.22172 -1.22152 -1.21658 -1.21601 -1.20766 -1.2032 -1.19403 -1.18836 -1.17448 -1.16623 -1.1522 -1.1444 -1.12997 -1.11279 -1.10239 -1.08775 -1.06613 -1.05278 -1.03821 -1.0195 -1.00646 -0.985311 -0.967285 -0.945964 -0.924042 -0.903712 -0.881027 -0.86541 -0.843025 -0.825963 -0.797307 -0.781418 -0.758316 -0.732656 -0.705639 -0.680695 -0.661448 -0.634918 -0.119568 -1.49463 -1.49463 -1.49463
-1.49463 -1.49463 -1.49463 -1.49463 -1.49463 -1.49463 -1.49463 -1.49463 -1.49463 -1.49463 -1.49463 -1.49463 -1.49463 -1.49463 -1.49463 -1.49463 -1.49463 -1.49463 -1.49463 -1.49463 -1.49463 -1.49463 -1.49463 -1.49463 -0.702759 -1.49463 -1.49463 -1.49463 -1.49463 -1.49463 -1.49463 -1.49463 -1.49463 -1.49463 -1.49463 -1.49463 -1.49463 -1.49463 -1.49463 -1.49463 -1.49463 -1.49463 -1.49463 -1.49463 -1.49463 -1.49463 -1.49463 -1.49463 -1.49463 -1.49463 -1.49463 -1.49463 -1.49463 -1.49463 -1.49463 -1.49463 -1.49463 -1.49463 -1.49463 -1.49463 -1.49463 0.0978088 -1.49463 -1.49463 -1.49463 -1.49463 -1.49463 -1.49463 -1.49463 -1.49463 -1.49463 -1.49463 0.0566711 -1.49463 -1.49463 -1.49463 -1.49463 -1.49463 -1.49463 -1.49463 -1.49463 -1.49463 -1.49463 -1.49463 -1.49463 -1.49463 -1.49463 -1.49463 0.2034 -1.49463 -1.49463 -1.49463 0.201263 0.188568 -1.49463 -1.49463 -1.49463 -1.49463 -1.49463 0.191269 -1.49463 0.17865 0.148575 -1.49463 -1.49463 0.172089 0.137238 -1.49463 -1.49463 -1.49463 -1.49463 0.163132 -1.49463 -1.49463 0.114944 0.104736 -1.49463 -1.49463 -1.49463 -1.49463 0.0821075 0.101303 0.0951996 -1.49463 -1.49463 -1.49463 0.089798 -1.49463 -1.49463 0.0514526 -1.49463 -1.49463 -1.49463 0.060318 0.158218 -1.49463 -1.49463 0.0636292 -1.49463 -1.49463 -1.49463 -1.49463 -1.49463 -1.49463 -1.21133 -1.21201 -1.22473 -1.22469 -1.22915 -1.22548 -1.22731 -1.22384 -1.22509 -1.21684 -1.21543 -1.21021 -1.20541 -1.19566 -1.19061 -1.1758 -1.16771 -1.15327 -1.14148 -1.13409 -1.11703 -1.10492 -1.08719 -1.07102 -1.0537 -1.03943 -1.0262 -1.00738 -0.984075 -0.970451 -0.949879 -0.930801 -0.905605 -0.88678 -0.870046 -0.844154 -0.828686 -0.80132 -0.781044 -0.759209 -0.73164 -0.708084 -0.685524 -0.667484 -0.641927 -0.131976 -1.49463 -1.49463 -1.49463
-1.49463 -1.49463 -1.49463 -1.49463 -1.49463 -1.49463 -1.49463 -1.49463 -1.49463 -1.49463 -1.49463 -1.49463 -1.49463 -1.49463 -1.49463 -1.49463 -1.49463 -1.49463 -1.49463 -1.49463 -1.49463 -1.49463 -1.49463 -1.49463 -1.49463 -1.49463 -1.49463 -1.49463 -1.49463 -1.49463 -1.49463 -1.49463 -1.49463 -1.49463 -1.49463 -1.49463 -1.49463 -1.49463 -1.49463 -1.49463 -1.49463 -1.49463 -1.49463 -1.49463 -1.49463 -1.49463 -1.49463 -1.49463 -1.49463 -1.49463 -1.49463 -1.49463 -1.49463 -1.49463 -1.49463 -1.49463 -1.49463 -1.49463 -1.49463 -1.49463 -1.49463 -1.49463 -1.49463 -1.49463 -1.49463 -1.49463 -1.49463 -1.49463 -1.49463 -1.49463 -1.49463 -1.49463 -1.49463 0.0703735 -1.49463 -1.49463 -1.49463 -1.49463 -1.49463 -1.49463 -1.49463 -1.49463 -1.49463 -1.49463 -1.49463 -1.49463 -1.49463 -1.49463 -1.49463 -1.49463 -1.49463 -1.49463 -1.49463 -1.49463 -1.49463 -1.49463 -1.49463 -1.49463 -1.49463 -1.49463 -1.49463 -1.49463 -1.49463 -1.49463 -1.49463 -1.49463 -1.49463 -1.49463 -1.49463 -1.49463 -1.49463 -1.49463 -1.49463 -1.49463 -1.49463 -1.49463 -1.49463 -1.49463 -1.49463 -1.49463 -1.49463 -1.49463 -1.49463 -1.49463 -1.49463 -1.49463 -1.49463 -1.49463 -1.49463 -1.49463 -1.49463 -1.49463 -1.49463 -1.49463 -1.49463 -1.49463 -1.49463 -1.49463 -1.49463 -1.49463 -1.49463 -1.49463 -1.49463 -1.49463 -1.21266 -1.21732 -1.22479 -1.22524 -1.23183 -1.22812 -1.23021 -1.22458 -1.22689 -1.21971 -1.21975 -1.21461 -1.2085 -1.20035 -1.19245 -1.17897 -1.17002 -1.15874 -1.14567 -1.13233 -1.1176 -1.10472 -1.09295 -1.07251 -1.05349 -1.04377 -1.02442 -1.00876 -0.984558 -0.972107 -0.954163 -0.930374 -0.906998 -0.887505 -0.869217 -0.848969 -0.831187 -0.801617 -0.782608 -0.75562 -0.729563 -0.70723 -0.68647 -0.671738 -0.641373 -0.121431 -1.49463 -1.49463 -1.49463
-1.49463 -1.49463 -1.49463 -1.49463 -1.49463 -1.49463 -1.49463 -1.49463 -1.49463 -1.49463 -1.49463 -1.49463 -1.49463 -1.49463 -1.49463 -1.49463 -1.49463 -1.49463 -1.49463 -1.49463 -1.49463 -1.49463 -1.49463 -1.49463 -1.49463 -1.49463 -1.49463 -1.49463 -1.49463 -1.49463 -1.49463 -1.49463 -1.49463 -1.49463 -1.49463 -1.49463 -1.49463 -1.49463 -1.49463 -1.49463 -1.49463 -1.49463 -1.49463 -1.49463 -1.49463 -1.49463 -1.49463 -1.49463 -1.49463 -1.49463 -1.49463 -1.49463 -1.49463 -1.49463 -1.49463 -1.49463 -1.49463 -1.49463 -1.49463 -1.49463 -1.49463 -1.49463 -1.49463 -1.49463 -1.49463 -1.49463 -1.49463 -1.49463 -1.49463 -1.49463 -1.49463 -1.49463 -1.49463 -1.49463 -1.49463 -1.49463 -1.49463 -1.49463 -1.49463 -1.49463 -1.49463 -1.49463 -1.49463 -1.49463 -1.49463 -1.49463 -1.49463 -1.49463 -1.49463 -1.49463 -1.49463 -1.49463 -1.49463 -1.49463 -1.49463 -1.49463 -1.49463 -1.49463 -1.49463 -1.49463 -1.49463 -1.49463 -1.49463 -1.49463 -1.49463 -1.49463 -1.49463 -1.49463 -1.49463 -1.49463 -1.49463 -1.49463 -1.49463 -1.49463 -1.49463 -1.49463 -1.49463 -1.49463 -1.49463 -1.49463 -1.49463 -1.49463 -1.49463 -1.49463 -1.49463 -1.49463 -1.49463 -1.49463 -1.49463 -1.49463 -1.49463 -1.49463 -1.49463 -1.49463 -1.49463 -1.49463 -1.49463 -1.49463 -1.49463 -1.49463 -1.49463 -1.49463 -1.49463 -1.49463 -1.21336 -1.21678 -1.2278 -1.22577 -1.23065 -1.23069 -1.23283 -1.22513 -1.22832 -1.22072 -1.22011 -1.214 -1.21181 -1.20201 -1.19492 -1.18298 -1.17213 -1.15976 -1.15046 -1.13445 -1.12033 -1.1089 -1.09095 -1.07182 -1.05449 -1.04222 -1.02216 -1.01198 -0.989482 -0.97216 -0.951782 -0.930618 -0.909119 -0.886368 -0.87075 -0.850182 -0.830083 -0.798976 -0.783127 -0.759857 -0.733871 -0.707241 -0.685989 -0.66596 -0.640523 -0.111563 -1.49463 -1.49463 -1.49463
-1.49463 -1.49463 -1.49463 -1.49463 -1.49463 -1.49463 -1.49463 -1.49463 -1.49463 -1.49463 -1.49463 -1.49463 -1.49463 -1.49463 -1.49463 -1.49463 -1.49463 -1.49463 -1.49463 -1.49463 -1.49463 -1.49463 -1.49463 -1.49463 -1.49463 -1.49463 -1.49463 -1.49463 -1.49463 -1.49463 -1.49463 -1.49463 -1.49463 -1.49463 -1.49463 -1.49463 -1.49463 -1.49463 -1.49463 -1.49463 -1.49463 -1.49463 -1.49463 -1.49463 -1.49463 -1.49463 -1.49463 -1.49463 -1.49463 -1.49463 -1.49463 -1.49463 -1.49463 -1.49463 -1.49463 -1.49463 -1.49463 -1.49463 -1.49463 -1.49463 -1.49463 -1.49463 -1.49463 -1.49463 -1.49463 -1.49463 -1.49463 -1.49463 -1.49463 -1.49463 -1.49463 -1.49463 -1.49463 -1.49463 -1.49463 -1.49463 -1.49463 -1.49463 -1.49463 -1.49463 -1.49463 -1.49463 -1.49463 -1.49463 -1.49463 -1.49463 -1.49463 -1.49463 -1.49463 -1.49463 -1.49463 -1.49463 -1.49463 -1.49463 -1.49463 -1.49463 -1.49463 -1.49463 -1.49463 -1.49463 -1.49463 -1.49463 -1.49463 -1.49463 -1.49463 -1.49463 -1.49463 -1.49463 -1.49463 -1.49463 -1.49463 -1.49463 -1.49463 -1.49463 -1.49463 -1.49463 -1.49463 -1.49463 -1.49463 -1.49463 -1.49463 -1.49463 -1.49463 -1.49463 -1.49463 -1.49463 -1.49463 -1.49463 -1.49463 -1.49463 -1.49463 -1.49463 -1.49463 -1.49463 -1.49463 -1.49463 -1.49463 -1.49463 -1.49463 -1.49463 -1.49463 -1.49463 -1.49463 -1.49463 -1.21471 -1.21711 -1.22836 -1.22428 -1.22153 -1.19566 -1.22733 -1.19328 -1.23003 -1.20638 -1.2099 -1.17564 -1.20948 -1.16242 -1.17931 -1.18192 -1.15742 -1.13723 -1.12122 -1.13656 -1.11132 -1.09652 -1.07992 -1.06193 -1.05429 -1.02899 -1.02478 -1.00455 -0.985026 -0.949615 -0.956085 -0.936137 -0.889806 -0.897453 -0.870682 -0.833748 -0.821278 -0.804825 -0.78363 -0.756927 -0.728523 -0.709282 -0.686272 -0.670189 -0.642843 -0.122471 -1.49463 -1.49463 -1.49463
