# .PCD v0.7 - Point Cloud Data file format
VERSION 0.7
FIELDS x y z
SIZE 4 4 4
TYPE F F F
COUNT 1 1 1
WIDTH 1670
HEIGHT 1
VIEWPOINT 0 0 0 1 0 0 0
POINTS 1670
DATA ascii
-316.83701 51.675999 55.834999
-316.84299 51.674999 55.77
-316.85101 51.667999 55.702999
-316.858 51.666 55.638
-316.86499 51.665001 55.571999
-316.87201 51.664001 55.506001
-316.88 51.658001 55.439999
-316.88699 51.657001 55.374001
-316.89499 51.647999 55.307999
-316.901 51.651001 55.242001
-316.90799 51.651001 55.176998
-316.91501 51.651001 55.110001
-316.922 51.648998 55.043999
-316.92999 51.643002 54.978001
-316.95999 51.498001 54.915001
-316.96899 51.483002 54.849998
-317.00101 51.535999 54.452
-317.10199 51.494999 53.526001
-317.09601 51.574001 53.459999
-317.09698 51.609001 53.394001
-317.10501 51.601002 53.327999
-317.112 51.599998 53.261002
-317.11899 51.598999 53.195
-317.12701 51.591 53.130001
-317.134 51.589001 53.063
-317.14099 51.585999 52.997002
-317.14899 51.581001 52.931
-317.155 51.582001 52.865002
-317.16199 51.584 52.798
-317.17001 51.576 52.733002
-317.177 51.570999 52.667
-317.18399 51.570999 52.599998
-317.19199 51.568001 52.534
-317.198 51.570999 52.467999
-317.20499 51.563999 52.402
-317.21399 51.556999 52.335999
-317.22 51.558998 52.269001
-317.22699 51.555 52.202999
-317.23401 51.554001 52.136002
-317.242 51.547001 52.070999
-317.24899 51.544998 52.004002
-317.30099 51.313 51.866001
-317.32599 51.284 51.666
-317.32901 51.43 51.403999
-317.49701 51.308998 49.936001
-317.474 51.484001 49.879002
-317.48099 51.48 49.812
-317.48901 51.478001 49.745998
-317.496 51.477001 49.678001
-317.50299 51.474998 49.612
-317.51001 51.469002 49.544998
-317.517 51.466 49.479
-317.52399 51.466 49.411999
-317.53201 51.462002 49.345001
-317.54001 51.452 49.278
-316.90302 51.641998 56.000999
-316.91101 51.639 55.935001
-316.91901 51.631001 55.868999
-316.92599 51.629002 55.803001
-316.93201 51.629002 55.737999
-316.939 51.630001 55.672001
-316.94699 51.623001 55.605
-316.95401 51.624001 55.539001
-316.961 51.619999 55.473
-316.96899 51.613998 55.408001
-316.97501 51.616001 55.341999
-316.983 51.613998 55.275002
-316.98901 51.616001 55.209
-316.996 51.611 55.143002
-317.00299 51.611 55.077
-317.01001 51.606998 55.012001
-317.034 51.502998 54.946999
-317.05099 51.443001 54.882
-317.05701 51.448002 54.815998
-317.065 51.442001 54.75
-317.07101 51.441002 54.683998
-317.078 51.442001 54.618
-317.086 51.435001 54.551998
-317.086 51.479 54.484001
-317.186 51.488998 53.491001
-317.17899 51.569 53.424999
-317.18701 51.561001 53.359001
-317.194 51.561001 53.292
-317.20099 51.557999 53.227001
-317.20801 51.556 53.16
-317.216 51.549 53.094002
-317.22299 51.547001 53.028
-317.23099 51.542999 52.960999
-317.237 51.542999 52.896
-317.245 51.539001 52.828999
-317.25201 51.539001 52.763
-317.259 51.535999 52.695999
-317.267 51.528999 52.630001
-317.27301 51.528999 52.563999
-317.28 51.527 52.498001
-317.28799 51.521 52.431999
-317.29501 51.521 52.365002
-317.30301 51.515999 52.299
-317.30899 51.515999 52.233002
-317.31699 51.511002 52.167
-317.323 51.514 52.099998
-317.33099 51.508999 52.033001
-317.362 51.356998 51.964001
-317.37 51.354 51.896999
-317.37601 51.355999 51.832001
-317.384 51.349998 51.764999
-317.39099 51.348 51.698002
-317.39801 51.348 51.631001
-317.405 51.345001 51.563999
-317.41199 51.345001 51.499001
-317.414 51.370998 51.432999
-317.561 51.418999 49.904999
-317.564 51.444 49.84
-317.57199 51.435001 49.771999
-317.578 51.438 49.706001
-317.586 51.432999 49.639999
-317.59201 51.435001 49.571999
-317.60001 51.426998 49.506001
-317.60699 51.429001 49.438
-317.61499 51.417999 49.373001
-317.62201 51.417 49.305
-316.965 51.598 56.051998
-316.97198 51.598999 55.986
-316.978 51.598 55.919998
-316.98599 51.591 55.854
-316.99301 51.592999 55.787998
-317.00101 51.588001 55.722
-317.00699 51.59 55.655998
-317.01401 51.585999 55.591
-317.022 51.584 55.523998
-317.02899 51.583 55.458
-317.03601 51.577 55.391998
-317.043 51.575001 55.326
-317.05099 51.571999 55.259998
-317.05801 51.57 55.194
-317.065 51.568001 55.127998
-317.07101 51.570999 55.062
-317.07901 51.564999 54.995998
-317.10001 51.473999 54.931
-317.108 51.470001 54.866001
-317.11401 51.476002 54.799999
-317.12201 51.467999 54.733002
-317.12799 51.471001 54.667
-317.13501 51.470001 54.599998
-317.14301 51.462002 54.535
-317.151 51.457001 54.469002
-317.24799 51.485001 53.476002
-317.24399 51.550999 53.41
-317.25601 51.52 53.342999
-317.263 51.518002 53.277
-317.26999 51.514 53.209999
-317.276 51.515999 53.144001
-317.28299 51.514 53.078999
-317.29099 51.509998 53.012001
-317.298 51.505001 52.945999
-317.30499 51.501999 52.879002
-317.31299 51.5 52.813
-317.319 51.502998 52.747002
-317.327 51.494999 52.681
-317.33301 51.495998 52.615002
-317.341 51.488998 52.548
-317.349 51.483002 52.481998
-317.35501 51.487 52.415001
-317.36301 51.480999 52.349998
-317.37 51.48 52.283001
-317.37701 51.479 52.216999
-317.38501 51.472 52.150002
-317.39099 51.474998 52.084
-317.39999 51.463001 52.018002
-317.42999 51.32 51.948002
-317.444 51.321999 51.814999
-317.452 51.311001 51.748001
-317.48401 51.158001 51.678001
-317.479 51.348999 51.417
-317.646 51.242001 49.946999
-317.625 51.402 49.889999
-317.633 51.396999 49.823002
-317.64001 51.396 49.756001
-317.646 51.397999 49.688999
-317.65399 51.390999 49.620998
-317.66199 51.387001 49.556
-317.668 51.390999 49.488998
-317.67599 51.382999 49.422001
-317.68201 51.382999 49.355
-317.03201 51.554001 56.077
-317.039 51.550999 56.011002
-317.04501 51.554001 55.944
-317.052 51.551998 55.877998
-317.05899 51.551998 55.811001
-317.06699 51.543999 55.745998
-317.07401 51.546001 55.68
-317.08099 51.543999 55.613998
-317.08899 51.536999 55.548
-317.09601 51.535 55.481998
-317.103 51.533001 55.416
-317.10999 51.534 55.348999
-317.11801 51.528 55.284
-317.12399 51.529999 55.216999
-317.13199 51.522999 55.151001
-317.138 51.525002 55.084999
-317.146 51.521999 55.019001
-317.17099 51.409 54.956001
-317.185 51.363998 54.889999
-317.21701 51.415001 54.492001
-317.32999 51.349998 53.497002
-317.315 51.476002 53.431
-317.323 51.474998 53.363998
-317.32901 51.473 53.299
-317.336 51.473 53.231998
-317.34399 51.469002 53.166
-317.35101 51.465 53.098999
-317.358 51.465 53.033001
-317.366 51.459 52.967999
-317.37299 51.455002 52.901001
-317.38 51.452 52.834999
-317.38599 51.453999 52.768002
-317.39301 51.453999 52.702
-317.401 51.451 52.634998
-317.40799 51.449001 52.569
-317.41501 51.445999 52.502998
-317.422 51.442001 52.437
-317.42999 51.438999 52.369999
-317.43701 51.433998 52.303001
-317.444 51.432999 52.237999
-317.45099 51.431 52.171001
-317.45801 51.43 52.104
-317.465 51.429001 52.037998
-317.53799 51.192001 51.700001
-317.54599 51.308998 51.437
-317.69299 51.358002 49.908001
-317.69901 51.355999 49.841
-317.707 51.349998 49.773998
-317.71399 51.352001 49.708
-317.72101 51.347 49.639999
-317.728 51.344002 49.573002
-317.73499 51.346001 49.506001
-317.742 51.346001 49.439999
-317.74899 51.339001 49.373001
-317.758 51.331001 49.305
-317.125 51.513 56.050999
-317.13199 51.509998 55.984001
-317.13901 51.508999 55.918999
-317.147 51.501999 55.853001
-317.15399 51.500999 55.786999
-317.16101 51.498001 55.720001
-317.168 51.5 55.653999
-317.17499 51.498001 55.588001
-317.181 51.499001 55.521
-317.189 51.493 55.455002
-317.19699 51.487999 55.389
-317.20401 51.486 55.323002
-317.21201 51.48 55.257
-317.21799 51.486 55.191002
-317.22501 51.480999 55.125
-317.233 51.476002 55.057999
-317.23999 51.472 54.992001
-317.26999 51.332001 54.928001
-317.31201 51.326 54.530998
-317.311 51.369999 54.464001
-317.40399 51.419998 53.467999
-317.409 51.432999 53.401001
-317.41699 51.43 53.335999
-317.42401 51.428001 53.268002
-317.431 51.424 53.202
-317.43799 51.422001 53.136002
-317.44501 51.419998 53.07
-317.453 51.416 53.004002
-317.45999 51.415001 52.936001
-317.46701 51.411999 52.870998
-317.474 51.409 52.804001
-317.48199 51.402 52.737999
-317.48801 51.404999 52.672001
-317.496 51.400002 52.605
-317.50201 51.401001 52.539001
-317.51001 51.394001 52.471001
-317.517 51.394001 52.405998
-317.52399 51.394001 52.34
-317.53101 51.388 52.272999
-317.53799 51.387001 52.206001
-317.54599 51.384998 52.139
-317.552 51.383999 52.074001
-317.577 51.280998 52.005001
-317.62201 51.174999 51.735001
-317.64401 51.205002 51.470001
-317.63901 51.271999 51.404999
-317.79401 51.231998 49.937
-317.78799 51.308998 49.873001
-317.79401 51.308998 49.806999
-317.802 51.304001 49.740002
-317.80899 51.300999 49.672001
-317.81601 51.299999 49.605999
-317.823 51.299 49.539001
-317.83301 51.279999 49.472
-317.84 51.278999 49.403999
-317.18799 51.477001 56.042999
-317.19501 51.476002 55.977001
-317.202 51.471001 55.910999
-317.20999 51.466999 55.845001
-317.21701 51.462002 55.778999
-317.224 51.464001 55.712002
-317.23001 51.465 55.646999
-317.23901 51.456001 55.580002
-317.245 51.457001 55.514
-317.25201 51.458 55.446999
-317.26001 51.450001 55.382
-317.267 51.451 55.316002
-317.27499 51.443001 55.249001
-317.28201 51.444 55.182999
-317.289 51.441002 55.117001
-317.29599 51.438999 55.050999
-317.31 51.394001 54.985001
-317.33401 51.289001 54.921001
-317.36899 51.327999 54.521999
-317.48099 51.264999 53.527
-317.465 51.397999 53.459999
-317.47299 51.393002 53.394001
-317.48001 51.391998 53.327
-317.487 51.388 53.262001
-317.49399 51.389 53.195
-317.50201 51.384998 53.129002
-317.509 51.382 53.062
-317.51599 51.377998 52.994999
-317.52301 51.375999 52.93
-317.53 51.374001 52.862999
-317.53799 51.368 52.797001
-317.54401 51.370998 52.73
-317.552 51.367001 52.662998
-317.56 51.359001 52.598
-317.56601 51.361 52.530998
-317.57401 51.354 52.464001
-317.58099 51.355999 52.397999
-317.58701 51.356998 52.332001
-317.595 51.352001 52.264
-317.60199 51.351002 52.199001
-317.60901 51.347 52.132
-317.616 51.346001 52.064999
-317.65701 51.146 51.993999
-317.685 51.136002 51.728001
-317.69901 51.214001 51.464001
-317.84601 51.264 49.931999
-317.85101 51.271999 49.865002
-317.85901 51.265999 49.798
-317.866 51.264999 49.730999
-317.87299 51.264 49.664001
-317.88101 51.255001 49.597
-317.888 51.257 49.529999
-317.90201 51.250999 49.396
-317.91 51.245998 49.328999
-317.26401 51.423 56.070999
-317.271 51.419998 56.006001
-317.27802 51.418999 55.939999
-317.28601 51.415001 55.874001
-317.293 51.414001 55.806999
-317.29999 51.411999 55.740002
-317.306 51.414001 55.674
-317.314 51.41 55.609001
-317.32001 51.41 55.542999
-317.328 51.407001 55.476002
-317.33499 51.401001 55.409
-317.34201 51.403 55.342999
-317.35001 51.396 55.278
-317.35699 51.394001 55.210999
-317.36499 51.389999 55.145
-317.371 51.390999 55.077999
-317.379 51.386002 55.011002
-317.40799 51.250999 54.949001
-317.452 51.230999 54.549999
-317.44901 51.289001 54.483002
-317.54599 51.320999 53.486
-317.54901 51.339001 53.419998
-317.556 51.341 53.354
-317.564 51.334999 53.286999
-317.57001 51.337002 53.221001
-317.578 51.330002 53.153999
-317.58499 51.330002 53.088001
-317.59299 51.320999 53.021
-317.599 51.324001 52.955002
-317.60699 51.32 52.888
-317.61301 51.319 52.821999
-317.62 51.318001 52.756001
-317.62799 51.316002 52.688999
-317.63501 51.310001 52.622002
-317.642 51.312 52.556
-317.64999 51.306 52.488998
-317.65701 51.304001 52.423
-317.664 51.303001 52.355999
-317.67099 51.299 52.290001
-317.67801 51.296001 52.223
-317.686 51.292 52.157001
-317.69199 51.296001 52.09
-317.71399 51.203999 52.021999
-317.78201 51.123001 51.486
-317.78201 51.166 51.419998
-317.93399 51.139 49.951
-317.92801 51.219002 49.887001
-317.935 51.216 49.820999
-317.94199 51.212002 49.752998
-317.94901 51.209999 49.686001
-317.957 51.202 49.618999
-317.965 51.198002 49.551998
-317.97101 51.201 49.485001
-317.98001 51.188999 49.417
-317.34399 51.384998 56.112
-317.35101 51.380001 56.046001
-317.358 51.380001 55.979
-317.36499 51.376999 55.912998
-317.37299 51.373001 55.846001
-317.38 51.370998 55.780998
-317.38699 51.368 55.715
-317.39401 51.369999 55.646999
-317.401 51.367001 55.581001
-317.40799 51.363998 55.514999
-317.41599 51.362999 55.449001
-317.423 51.359001 55.382
-317.42899 51.360001 55.316002
-317.43701 51.355 55.25
-317.444 51.353001 55.182999
-317.452 51.351002 55.118
-317.45999 51.344002 55.050999
-317.48499 51.234001 54.987
-317.49899 51.193001 54.921001
-317.52802 51.258999 54.52
-317.64001 51.202999 53.521999
-317.629 51.304001 53.456001
-317.63699 51.296001 53.389
-317.64401 51.297001 53.323002
-317.65201 51.292 53.257
-317.659 51.285999 53.189999
-317.66599 51.285999 53.124001
-317.673 51.286999 53.056
-317.67999 51.285 52.991001
-317.68701 51.282001 52.924999
-317.69501 51.277 52.856998
-317.702 51.276001 52.791
-317.70901 51.271 52.723999
-317.716 51.272999 52.658001
-317.72299 51.266998 52.591
-317.73001 51.264999 52.525002
-317.73801 51.261002 52.458
-317.74399 51.264 52.390999
-317.75201 51.258999 52.324001
-317.76001 51.254002 52.257999
-317.767 51.251999 52.192001
-317.77301 51.251999 52.125
-317.78101 51.249001 52.057999
-317.86099 51.136002 51.455002
-318.01001 51.174999 49.918999
-318.01599 51.175999 49.853001
-318.02399 51.172001 49.785
-318.03201 51.164001 49.719002
-318.039 51.160999 49.651001
-318.04501 51.162998 49.584
-318.05301 51.158001 49.516998
-318.05801 51.168999 49.450001
-318.06799 51.151001 49.382999
-317.41101 51.341999 56.094002
-317.418 51.341 56.027
-317.42499 51.337002 55.960999
-317.43201 51.339001 55.895
-317.439 51.334 55.828999
-317.448 51.326 55.762001
-317.45401 51.328999 55.695999
-317.461 51.328999 55.630001
-317.46799 51.324001 55.563
-317.47501 51.325001 55.497002
-317.48199 51.324001 55.43
-317.48999 51.314999 55.363998
-317.496 51.32 55.297001
-317.504 51.314999 55.230999
-317.51099 51.310001 55.165001
-317.51901 51.306 55.098999
-317.52499 51.310001 55.032001
-317.59601 51.169998 54.57
-317.59399 51.221001 54.501999
-317.69501 51.230999 53.505001
-317.69601 51.264999 53.438
-317.70499 51.252998 53.370998
-317.711 51.252998 53.305
-317.71799 51.255001 53.237999
-317.72601 51.248001 53.172001
-317.73199 51.25 53.105
-317.73999 51.245998 53.039001
-317.746 51.244999 52.972
-317.755 51.236 52.905998
-317.76099 51.241001 52.839001
-317.76801 51.236 52.772999
-317.776 51.234001 52.706001
-317.78299 51.231998 52.639
-317.79099 51.223999 52.573002
-317.798 51.223 52.506001
-317.80499 51.223 52.439999
-317.81201 51.222 52.373001
-317.819 51.219002 52.306
-317.82599 51.213001 52.240002
-317.83301 51.215 52.173
-317.841 51.209 52.105999
-317.92599 51.109001 51.436001
-318.08099 51.068001 49.963001
-318.077 51.132999 49.900002
-318.08401 51.127998 49.833
-318.091 51.127998 49.765999
-318.09799 51.125 49.698002
-318.10501 51.129002 49.631001
-318.11301 51.116001 49.563999
-318.12 51.116001 49.497002
-318.12601 51.118999 49.43
-318.133 51.118999 49.362999
-317.483 51.292999 56.111
-317.491 51.289001 56.044998
-317.49701 51.294998 55.979
-317.505 51.287998 55.910999
-317.51099 51.286999 55.846001
-317.51901 51.283001 55.778999
-317.52701 51.278999 55.713001
-317.53299 51.278999 55.646
-317.54001 51.278999 55.578999
-317.548 51.276001 55.513
-317.55499 51.271 55.446999
-317.56201 51.271999 55.381001
-317.569 51.268002 55.313999
-317.57599 51.264999 55.248001
-317.58301 51.264999 55.181
-317.591 51.257 55.115002
-317.599 51.254002 55.049
-317.66699 51.174999 54.516998
-317.76501 51.195999 53.519001
-317.76901 51.212002 53.452
-317.77701 51.206001 53.384998
-317.78299 51.209 53.32
-317.79199 51.199001 53.252998
-317.798 51.201 53.186001
-317.80499 51.198002 53.118999
-317.81299 51.195 53.053001
-317.82001 51.194 52.986
-317.827 51.189999 52.919998
-317.83401 51.188999 52.853001
-317.84201 51.181999 52.785999
-317.84799 51.185001 52.719002
-317.85599 51.18 52.653
-317.86401 51.175999 52.587002
-317.87 51.174 52.519001
-317.87799 51.171001 52.452999
-317.88501 51.169998 52.386002
-317.892 51.166 52.319
-317.89999 51.162998 52.252998
-317.90601 51.162998 52.186001
-317.914 51.159 52.118999
-318.151 51.078999 49.91
-318.15701 51.080002 49.842999
-308.198 55.251999 50.540001
-308.22299 55.486 50.243999
-308.36099 55.417 48.944
-308.28 55.467999 50.236
-308.41199 55.347 50.289001
-308.547 55.546001 48.945
-308.405 55.397999 50.832001
-308.60101 55.307999 48.974998
-308.599 55.563999 48.931
-308.60501 55.566002 48.870998
-308.612 55.554001 48.807999
-308.61801 55.563 48.747002
-308.625 55.561001 48.685001
-308.63101 55.556999 48.622002
-308.64401 55.555 48.499001
-308.655 55.535 48.950001
-308.66199 55.539001 48.889
-308.668 55.535999 48.827
-308.681 55.527 48.702999
-308.68799 55.528999 48.640999
-308.69501 55.507999 48.577999
-308.707 55.535999 48.456001
-308.72 55.519001 48.332001
-308.73199 55.511002 48.917
-308.745 55.500999 48.792999
-308.75101 55.506001 48.730999
-308.758 55.498001 48.667999
-308.76401 55.491001 48.605999
-308.797 55.473999 48.841
-308.80301 55.478001 48.779999
-308.81 55.474998 48.717999
-308.81699 55.473999 48.655998
-308.823 55.474998 48.594002
-308.82901 55.478001 48.533001
-308.849 55.460999 48.346001
-308.84601 55.444 48.917
-308.853 55.445 48.855999
-308.85901 55.451 48.793999
-308.866 55.448002 48.731998
-308.87299 55.442001 48.668999
-308.87799 55.445999 48.608002
-308.883 55.5 48.550999
-308.892 55.431 48.483002
-308.89801 55.441002 48.422001
-308.905 55.433998 48.359001
-308.755 55.000999 50.653
-308.92099 55.223999 48.991001
-308.91901 55.417999 48.944
-308.92599 55.423 48.882
-308.93301 55.415001 48.82
-308.939 55.423 48.758999
-308.94601 55.409 48.695999
-308.952 55.411999 48.634998
-308.98401 55.411999 48.325001
-308.811 54.964001 50.647999
-308.97501 55.243999 48.990002
-308.97501 55.391998 48.938999
-308.98099 55.396 48.879002
-308.98801 55.394001 48.816002
-308.995 55.390999 48.754002
-309.00101 55.389 48.692001
-309.00699 55.393002 48.631001
-309.01401 55.390999 48.568001
-309.01999 55.386002 48.506001
-309.03299 55.384998 48.382
-309.04099 55.360001 48.896999
-309.047 55.359001 48.834999
-309.05301 55.362999 48.775002
-309.06 55.359001 48.712002
-309.06601 55.361 48.651001
-309.073 55.353001 48.587002
-309.07901 55.356998 48.526001
-309.086 55.362 48.464001
-309.09201 55.348 48.401001
-309.10901 55.087002 49.019001
-309.10501 55.334 48.973999
-309.11099 55.34 48.912998
-309.11801 55.332001 48.851002
-309.12399 55.34 48.789001
-309.13101 55.334999 48.727001
-309.13699 55.327 48.664001
-309.14401 55.330002 48.602001
-309.14999 55.328999 48.540001
-309.15701 55.266998 49.009998
-309.16101 55.311001 48.952
-309.16699 55.314999 48.889999
-309.17401 55.306999 48.827
-309.181 55.310001 48.764999
-309.18701 55.306999 48.702999
-309.20001 55.307999 48.578999
-309.207 55.303001 48.516998
-309.23499 55.275002 48.841999
-309.242 55.279999 48.779999
-309.24799 55.279999 48.717999
-309.255 55.273998 48.654999
-309.26099 55.279999 48.594002
-309.267 55.271999 48.532001
-309.32599 55.241001 48.679001
-309.33899 55.247002 48.555
-309.345 55.248001 48.493999
-309.35199 55.241001 48.431
-309.358 55.240002 48.368999
-309.34299 55.206001 49.032001
-309.34799 55.230999 48.972
-309.38101 55.220001 48.660999
-309.39401 55.208 48.535999
-309.27399 54.931 50.414001
-309.409 55.194 49.001999
-309.41599 55.195 48.939999
-309.42999 55.188999 48.814999
-309.44199 55.189999 48.691002
-309.44901 55.188 48.629002
-309.31601 54.938 50.692001
-309.48599 55.165001 48.966999
-309.50601 55.165001 48.780998
-309.51901 55.159 48.655998
-309.577 55.134998 48.636002
-309.414 54.854 50.874001
-309.44101 54.687 50.679001
-309.51801 54.660999 50.703999
-309.74701 52.958 49.216
-309.685 55.077 48.922001
-309.69101 55.068001 48.860001
-309.698 55.07 48.797001
-309.68799 53.068001 50.241001
-309.76401 53.268002 49.422001
-309.74301 55.054001 48.852001
-309.75601 55.055 48.727001
-309.63 54.578999 50.724998
-309.78201 53.390999 49.779999
-309.79599 53.382 49.653
-309.814 53.404999 49.462002
-309.84799 53.391998 49.141998
-309.78101 55.034 49.068001
-309.78799 55.02 49.005001
-309.80701 55.016998 48.817001
-309.80499 53.492001 50.273998
-309.849 53.528999 49.831001
-309.85699 53.507999 49.765999
-309.922 53.521999 49.130001
-309.862 54.990002 49.044998
-309.87601 54.967999 48.918999
-309.86301 53.588001 50.207001
-309.901 53.618999 49.827999
-309.918 54.974998 49.035
-309.93799 54.966 48.847
-309.94501 54.958 48.785
-309.95801 54.949001 48.659
-309.96399 53.715 49.734001
-309.99399 54.933998 48.872002
-310 54.938 48.810001
-310.095 54.890999 48.647999
-310.12 54.893002 48.398998
-310.08701 53.77 49.817001
-310.10599 53.945999 50.106998
-310.203 54.834 48.720001
-310.229 54.842999 48.470001
-310.17899 54.061001 50.081001
-310.186 54.053001 50.018002
-310.19199 54.063999 49.955002
-310.233 54.310001 49.946999
-310.229 54.618 50.423
-310.23599 54.611 50.360001
-310.24799 54.624001 50.236
-310.255 54.627998 50.174
-310.26801 54.618999 50.048
-310.27899 54.727001 50.597
-310.44 54.674999 50.882999
-310.51801 54.643002 50.679001
-310.57199 54.611 50.773998
-310.578 54.612999 50.712002
-310.66299 54.562 51.16
-310.745 54.303001 50.521999
-310.72299 54.544998 51.188
-310.746 54.301998 51.116001
-310.76401 54.223999 50.987
-310.78299 54.054001 50.917
-310.811 54.299999 50.487999
-310.87201 54.015999 50.818001
-310.88699 54.264999 50.514999
-310.92099 53.995998 50.874001
-311.078 54.438999 49.073002
-310.90701 54.541 51.237
-310.92899 54.332001 51.167
-310.95499 54.145 51.034
-310.97101 54.007999 50.966
-311.00299 54.209 50.534
-311.138 54.402 49.097
-311.14401 54.403 49.035
-310.99399 54.412998 51.196999
-311.01901 54.147999 51.124001
-311.06201 53.917999 50.862999
-311.078 54.155998 50.557999
-311.08301 54.168999 50.494999
-311.20999 54.386002 49.123001
-311.043 54.423 51.237
-311.064 54.223999 51.166
-311.10599 53.918999 50.965
-311.11301 53.91 50.902
-311.12601 54.083 50.657001
-311.134 54.160999 50.535
-311.099 54.473 51.261002
-311.12201 54.248001 51.189999
-311.168 53.889 50.987
-311.17401 53.893002 50.924
-311.18201 53.881001 50.860001
-311.34399 54.319 48.990002
-311.19 54.323002 51.222
-311.215 54.076 51.150002
-311.23801 53.939999 51.019001
-311.27499 54.058998 50.582001
-311.27899 54.084999 50.52
-311.23199 54.421001 51.271999
-311.258 54.164001 51.201
-311.28299 54 51.069
-311.30099 53.848999 50.999001
-311.31699 53.813999 50.872002
-311.32999 54.068001 50.567001
-311.44901 54.291 49.254002
-311.293 54.387001 51.284
-311.311 54.229 51.216
-311.336 53.993999 51.144001
-311.34399 53.970001 51.080002
-311.35599 53.903999 51.014
-311.367 53.842999 50.949001
-311.37701 53.810001 50.883999
-311.37701 53.973999 50.764
-311.38901 53.986 50.639
-311.392 54.036999 50.577999
-311.53101 54.245998 49.075001
-311.384 54.243999 51.237999
-311.40701 54.025002 51.167999
-311.414 54.019001 51.104
-311.42099 54.016998 51.041
-311.44 54.019001 50.852001
-311.45999 54.014999 50.660999
-311.46799 53.997002 50.598
-311.59399 54.219002 49.221001
-311.60101 54.213001 49.158001
-311.608 54.208 49.094002
-311.42899 54.298 51.278999
-311.45599 54.041 51.207001
-311.52499 53.987 50.573002
-311.66101 53.922001 49.304001
-311.672 54.181 49.005001
-311.491 54.289001 51.294998
-311.51001 54.141998 51.228001
-311.59 53.948002 50.588001
-311.72299 54.148998 49.145
-311.73001 54.152 49.083
-311.577 54.155998 51.254002
-311.625 53.650002 51.173
-311.625 53.73 51.112
-311.66299 53.905998 50.612999
-311.80099 54.119999 49.105999
-311.80801 54.118999 49.042999
-311.62 54.242001 51.311001
-311.72101 53.896999 50.603001
-311.85999 54.095001 49.096001
-311.867 54.094002 49.033001
-311.70099 54.082001 51.271
-311.918 54.063999 49.185001
-311.92499 54.058998 49.120998
-311.931 54.058998 49.058998
-311.76901 54.085999 51.306
-311.845 53.570999 50.970001
-311.99799 53.778999 49.327
-311.89899 53.555 51.028
-312.04401 53.998001 49.273998
-312.06299 53.999001 49.084
-311.91199 53.838001 51.258999
-311.96399 53.532001 50.993
-305.51001 55.743 50.608002
-305.58301 55.693001 50.631001
-305.58899 55.691002 50.57
-305.63699 55.666 50.609001
-305.689 55.645 50.632
-305.76199 55.608002 50.666
-305.76901 55.613998 50.604
-305.81699 55.583 50.657001
-305.823 55.583 50.596001
-305.87201 55.547001 50.686001
-305.879 55.554001 50.624001
-305.94699 55.526001 50.658001
-305.95401 55.562 50.598999
-306.00201 55.515999 50.641998
-306.061 55.484001 50.66
-306.12799 55.445999 50.686001
-306.18399 55.416 50.662998
-306.24301 55.379002 50.68
-306.595 54.006001 49.747002
-306.608 53.994999 49.619999
-306.61499 53.997002 49.556999
-306.621 54.002998 49.493
-306.62799 54 49.431
-306.63501 53.998001 49.368
-306.64099 54.004002 49.305
-306.64801 53.987 49.241001
-306.655 54.000999 49.178001
-306.66101 54.000999 49.115002
-306.668 54.02 49.053001
-306.67401 54.012001 48.991001
-306.681 54.009998 48.925999
-306.68701 54.000999 48.862999
-306.694 53.999001 48.799
-306.70099 54.000999 48.737
-306.707 54.006001 48.674
-306.71399 54.002998 48.610001
-306.64301 54.120998 49.796001
-306.64999 54.101002 49.730999
-306.65701 54.129002 49.669998
-306.66299 54.126999 49.606998
-306.67001 54.136002 49.544998
-306.677 54.130001 49.481998
-306.68301 54.132999 49.418999
-306.69 54.123001 49.355
-306.69601 54.127998 49.292
-306.703 54.125 49.23
-306.70999 54.109001 49.165001
-306.716 54.132 49.104
-306.72299 54.132999 49.041
-306.729 54.136002 48.978001
-306.73599 54.125999 48.915001
-306.742 54.136002 48.852001
-306.74899 54.125 48.787998
-306.755 54.122002 48.724998
-306.76199 54.133999 48.661999
-306.76901 54.132999 48.598999
-306.67499 54.286999 50.077999
-306.72198 54.258999 49.637001
-306.728 54.266998 49.575001
-306.73499 54.272999 49.512001
-306.741 54.269001 49.450001
-306.74799 54.286999 49.388
-306.754 54.271 49.324001
-306.76099 54.268002 49.261002
-306.767 54.285999 49.199001
-306.77399 54.275002 49.136002
-306.78 54.327 49.077
-306.78699 54.289001 49.011002
-306.79401 54.289001 48.949001
-306.79999 54.282001 48.883999
-306.80701 54.285 48.821999
-306.814 54.285 48.759998
-306.82001 54.284 48.695999
-306.827 54.278 48.632999
-306.746 54.661999 50.127998
-306.79199 54.654999 49.691002
-306.80499 54.666 49.568001
-306.811 54.669998 49.505001
-306.81799 54.700001 49.445
-306.82501 54.688 49.381001
-306.83701 54.687 49.257
-306.84399 54.687 49.195
-306.85101 54.683998 49.131001
-306.85699 54.694 49.07
-306.86401 54.691002 49.007
-306.87 54.700001 48.945
-306.87701 54.702999 48.883999
-306.883 54.702 48.82
-306.89001 54.716 48.758999
-306.896 54.708 48.695999
-306.853 54.827999 49.626999
-306.87299 54.818001 49.439999
-306.879 54.82 49.377998
-306.88599 54.827 49.316002
-306.892 54.827 49.252998
-306.89801 54.853001 49.193001
-306.905 54.839001 49.130001
-306.91199 54.824001 49.067001
-306.91901 54.834 49.005001
-306.92499 54.832001 48.942001
-306.931 54.837002 48.880001
-306.93799 54.841999 48.819
-306.944 54.841999 48.756001
-306.95099 54.855999 48.695
-306.85599 54.971001 50.158001
-306.90799 54.959999 49.660999
-306.92001 54.985001 49.537998
-306.927 54.987999 49.476002
-306.94 54.978001 49.351002
-306.953 54.988998 49.228001
-306.95999 54.984001 49.165001
-306.966 54.98 49.103001
-306.97299 54.974998 49.040001
-306.979 54.980999 48.979
-306.98599 54.980999 48.916
-306.992 54.993999 48.855
-306.99899 54.993 48.792999
-307.005 54.997002 48.73
-306.92599 55.064999 50.198002
-306.93301 55.087002 50.137001
-306.939 55.082001 50.075001
-306.94601 55.085999 50.013
-306.95801 55.089001 49.889
-306.965 55.085999 49.827
-306.978 55.077999 49.702999
-306.991 55.077999 49.577999
-306.99799 55.067001 49.514999
-307.004 55.070999 49.455002
-307.01099 55.066002 49.390999
-307.017 55.049999 49.328999
-307.02399 55.067001 49.266998
-307.03 55.064999 49.206001
-307.03699 55.056999 49.143002
-307.043 55.051998 49.080002
-307.04999 55.048 49.018002
-307.056 55.048 48.956001
-304.147 56.398998 50.452
-304.173 56.904999 50.417999
-304.17999 56.909 50.356998
-304.181 56.763 50.289001
-304.185 56.715 50.227001
-304.19199 56.727001 50.167
-304.21201 56.916 50.056999
-304.22 56.972 50
-304.19 56.347 50.491001
-304.198 56.396999 50.432999
-304.224 56.91 50.397999
-304.229 56.893002 50.337002
-304.229 56.708 50.268002
-304.26199 56.910999 50.037998
-304.26999 56.964001 49.980999
-304.25299 56.335999 50.453999
-304.285 56.875999 50.360001
-304.28601 56.709999 50.290001
-304.32599 56.946999 50.002998
-304.50601 57.011002 48.321999
-304.32199 56.304001 50.487999
-304.35501 56.882 50.395
-304.35999 56.852001 50.334
-304.35999 56.674 50.264
-304.367 56.675999 50.203999
-304.43301 56.897999 50.144001
-304.439 56.882999 50.082001
-304.633 56.979 48.282001
-304.64499 56.976002 48.160999
-304.427 56.238998 50.494999
-304.46701 56.646999 50.273998
-304.50101 56.904999 50.048
-304.686 56.956001 48.305
-304.69299 56.969002 48.244999
-304.504 56.192001 50.473999
-304.552 56.166 50.529999
-304.586 56.827999 50.442001
-304.591 56.810001 50.381001
-304.82999 56.917999 48.158001
-304.60999 56.138 50.494999
-304.72299 56.567001 50.237
-304.90799 56.794998 48.558998
-304.936 56.890999 48.326
-304.95499 56.897999 48.145
-304.73499 56.102001 50.502998
-304.78 56.565998 50.223999
-304.97299 56.877998 48.493999
-304.98001 56.890999 48.433998
-304.99899 56.882999 48.251999
-305.01099 56.881001 48.131001
-304.78601 56.037998 50.527
-304.832 56.535999 50.249001
-304.84 56.576 50.191002
-305.03201 56.875999 48.460999
-305.03799 56.869999 48.400002
-305.04501 56.877998 48.34
-305.05099 56.868 48.278
-305.064 56.863998 48.157001
-304.854 56.029999 50.556999
-304.85999 56.014 50.497002
-304.892 56.741001 50.410999
-304.90601 56.526001 50.220001
-305.11801 56.855 48.307999
-305.13101 56.852001 48.186001
-305.13699 56.852001 48.125999
-304.91299 56.006001 50.549999
-304.95099 56.509998 50.333
-305.16299 56.844002 48.422001
-305.16901 56.841 48.361
-305.17599 56.838001 48.299999
-305.18201 56.838001 48.238998
-305.18799 56.835999 48.179001
-305.19501 56.832001 48.118
-304.97198 55.988998 50.522999
-305.005 56.52 50.367001
-305.017 56.490002 50.244999
-305.043 56.787998 50.080002
-305.22198 56.827 48.394001
-305.228 56.825001 48.333
-305.23401 56.820999 48.271999
-305.241 56.818001 48.210999
-305.24701 56.820999 48.151001
-305.04099 55.983002 50.556
-305.08401 56.456001 50.276001
-305.091 56.493999 50.216999
-305.289 56.806 48.424
-305.29501 56.808998 48.363998
-305.302 56.811001 48.303001
-305.30801 56.808998 48.243
-305.314 56.803001 48.181999
-305.095 55.932999 50.536999
-305.125 56.688 50.452999
-305.33099 56.798 48.528
-305.33701 56.799999 48.467999
-305.34399 56.799999 48.408001
-305.35001 56.796001 48.347
-305.35599 56.797001 48.286999
-305.36301 56.792999 48.226002
-305.36899 56.792 48.165001
-305.14999 55.898998 50.550999
-305.17899 56.671001 50.469002
-305.397 56.778999 48.423
-305.40399 56.780998 48.362
-305.41 56.784 48.301998
-305.41599 56.779999 48.241001
-305.422 56.778999 48.181
-305.22 55.937 50.584
-305.23999 56.599998 50.555
-305.254 56.653999 50.437
-305.45401 56.769001 48.571999
-305.466 56.778 48.451
-305.479 56.763 48.330002
-305.48499 56.758999 48.269001
-305.491 56.757 48.208
-305.49799 56.768002 48.147999
-305.26999 55.832001 50.555
-305.504 56.759998 48.548
-305.51001 56.756001 48.487999
-305.517 56.756001 48.426998
-305.52301 56.751999 48.366001
-305.52899 56.751999 48.305
-305.53601 56.748001 48.243999
-305.54199 56.743999 48.183998
-305.358 56.710999 50.554001
-305.38901 56.666 50.250999
-305.396 56.674999 50.189999
-305.41501 56.687 50.011002
-305.42099 56.655998 49.948002
-305.42801 56.695999 49.889999
-305.43399 56.682999 49.828999
-305.44601 56.618 49.703999
-305.47198 56.646999 49.464001
-305.48499 56.671001 49.345001
-305.49799 56.673 49.223999
-305.517 56.672001 49.042999
-305.53601 56.673 48.861
-305.54199 56.662998 48.799
-305.54901 56.665001 48.738998
-305.561 56.674 48.618999
-305.569 56.738998 48.563999
-305.57501 56.737 48.502998
-305.58099 56.733002 48.442001
-305.58801 56.734001 48.382
-305.60001 56.726002 48.259998
-305.60699 56.726002 48.199001
-305.61301 56.723 48.139
-305.39801 55.792999 50.601002
-305.41901 56.609001 50.578999
-305.40701 55.877998 50.543999
-305.42599 56.632999 50.52
-305.44699 56.401001 50.265999
-305.62299 56.601002 48.643002
-305.63101 56.722 48.591999
-305.638 56.723999 48.532001
-305.64401 56.724998 48.472
-305.64999 56.726002 48.410999
-305.65601 56.716 48.349998
-305.66299 56.720001 48.289001
-305.67499 56.708 48.167999
-305.45801 55.768002 50.585999
-305.49301 56.353001 50.370998
-305.52301 56.661999 50.146
-305.69 56.708 48.577999
-305.69601 56.708 48.516998
-305.702 56.705002 48.456001
-305.70801 56.699001 48.395
-305.72101 56.699001 48.275002
-305.73401 56.695 48.153
-305.52899 56.535 50.584999
-305.54099 56.556999 50.466
-305.54501 56.327 50.394001
-305.55099 56.321999 50.333
-305.55701 56.335999 50.271999
-305.733 56.530998 48.647999
-305.741 56.698002 48.599998
-305.74701 56.691002 48.540001
-305.754 56.693001 48.479
-305.76001 56.683998 48.417999
-305.76599 56.685001 48.356998
-305.61499 56.556 50.490002
-305.81299 56.674999 48.623001
-305.82001 56.671001 48.561001
-305.82599 56.669998 48.500999
-305.83301 56.664001 48.439999
-305.845 56.655998 48.319
-305.655 56.542 50.589001
-305.67099 56.304001 50.396
-305.677 56.307999 50.335999
-305.70001 56.605 50.168999
-305.858 56.528999 48.651001
-305.866 56.658001 48.599998
-305.87299 56.651001 48.540001
-305.879 56.654999 48.48
-305.88501 56.657001 48.418999
-305.89099 56.648998 48.358002
-305.70599 56.464001 50.610001
-305.91 56.485001 48.673
-305.918 56.637001 48.624001
-305.92499 56.639999 48.563
-305.931 56.633999 48.501999
-305.93701 56.633999 48.441002
-305.95001 56.624001 48.32
-305.95599 56.629002 48.259998
-305.802 56.252998 50.391998
-305.80801 56.243 50.330002
-305.98999 56.521999 48.647999
-305.99701 56.612999 48.595001
-306.00299 56.591 48.533001
-306.01001 56.612 48.473999
-306.01599 56.610001 48.412998
-306.022 56.608002 48.352001
-306.034 56.582001 48.229
-306.04099 56.596001 48.169998
-305.83899 56.501999 50.578999
-305.845 56.466999 50.515999
-305.85599 56.233002 50.382999
-305.862 56.249001 50.324001
-305.884 56.535999 50.157001
-306.043 56.598999 48.647999
-306.04999 56.596001 48.588001
-306.056 56.597 48.526001
-306.06201 56.594002 48.465
-306.069 56.592999 48.404999
-306.07501 56.588001 48.344002
-306.08099 56.584999 48.283001
-306.08801 56.584 48.222
-306.09399 56.591999 48.161999
-305.89401 56.473999 50.606998
-305.89999 56.424999 50.543999
-305.91101 56.223 50.412998
-305.918 56.224998 50.352001
-306.09799 56.473999 48.667
-306.10501 56.576 48.615002
-306.112 56.578999 48.555
-306.11801 56.569 48.493999
-306.12399 56.576 48.432999
-306.14301 56.565998 48.25
-306.14999 56.560001 48.189999
-305.961 56.380001 50.638
-305.974 56.422001 50.518002
-305.98499 56.201 50.386002
-306.16599 56.421001 48.698002
-306.17899 56.554001 48.587002
-306.185 56.557999 48.527
-306.19101 56.551998 48.466
-306.198 56.549 48.404999
-306.20401 56.544998 48.345001
-306.20999 56.546001 48.284
-306.01501 56.438999 50.624001
-306.021 56.41 50.562
-306.03299 56.182999 50.43
-306.039 56.193001 50.369999
-306.21899 56.43 48.682999
-306.22601 56.535999 48.630001
-306.23199 56.536999 48.570999
-306.23901 56.532001 48.508999
-306.25101 56.535 48.388
-306.26401 56.525002 48.265999
-306.26999 56.527 48.205002
-306.086 56.342999 50.516998
-306.091 56.168999 50.446999
-306.09799 56.175999 50.387001
-306.27701 56.362 48.696999
-306.284 56.514999 48.647999
-306.297 56.514999 48.526001
-306.30301 56.512001 48.465
-306.30899 56.519001 48.405998
-306.328 56.497002 48.221001
-306.15201 56.363998 50.544998
-306.15799 56.179001 50.476002
-306.17001 56.157001 50.352001
-306.34399 56.335999 48.721001
-306.35001 56.483002 48.672001
-306.35699 56.494999 48.612
-306.36301 56.490002 48.550999
-306.36899 56.490002 48.491001
-306.37601 56.481998 48.428001
-306.38199 56.492001 48.368999
-306.401 56.487 48.187
-306.21899 56.141998 50.393002
-306.39899 56.360001 48.703999
-306.405 56.470001 48.652
-306.41199 56.473 48.591999
-306.418 56.469002 48.530998
-306.42401 56.462002 48.469002
-306.42999 56.458 48.408001
-306.43701 56.463001 48.348
-306.284 56.132 50.348999
-306.457 56.337002 48.720001
-306.46301 56.448002 48.667
-306.47 56.451 48.608002
-306.47601 56.445 48.546001
-306.48199 56.448002 48.485001
-306.48801 56.442001 48.424
-306.495 56.442001 48.362999
-306.50101 56.446999 48.303001
-306.508 56.445 48.242001
-306.33499 56.372002 50.573002
-306.526 56.271999 48.744999
-306.53299 56.428001 48.695
-306.539 56.428001 48.634998
-306.54599 56.426998 48.573002
-306.552 56.422001 48.513
-306.55801 56.424 48.451
-306.564 56.423 48.390999
-306.57101 56.423 48.331001
-306.577 56.424999 48.269001
-306.58401 56.417999 48.208
-306.40601 56.089001 50.368999
-306.578 56.269001 48.736
-306.58401 56.403999 48.686001
-306.591 56.407001 48.625999
-306.59698 56.407001 48.564999
-306.603 56.405998 48.504002
-306.60901 56.407001 48.443001
-306.616 56.403 48.382
-306.62201 56.400002 48.32
-306.629 56.403 48.261002
-306.64301 56.377998 48.709999
-306.64899 56.381001 48.650002
-306.655 56.380001 48.588001
-306.66199 56.381001 48.528
-306.668 56.382 48.466999
-306.67401 56.375 48.405998
-306.681 56.375999 48.344002
-306.68701 56.375 48.283001
-306.711 56.311001 48.728001
-306.71799 56.356998 48.669998
-306.724 56.359001 48.610001
-306.73001 56.355999 48.549
-306.737 56.356998 48.487999
-306.74301 56.360001 48.426998
-306.75 56.355999 48.366001
-306.75601 56.347 48.304001
-306.76199 56.354 48.243999
-306.76901 56.352001 48.182999
-306.759 56.205002 48.759998
-306.76501 56.341 48.710999
-306.771 56.339001 48.650002
-306.77802 56.335999 48.588001
-306.784 56.334999 48.527
-306.79001 56.337002 48.466
-306.797 56.331001 48.405998
-306.80301 56.339001 48.345001
-306.81601 56.334 48.223
-306.66299 56.263 50.247002
-306.82199 56.311001 48.729
-306.828 56.316002 48.668999
-306.83499 56.313 48.608002
-306.841 56.308998 48.547001
-306.84698 56.313 48.486
-306.854 56.308998 48.424
-306.85999 56.317001 48.363998
-306.866 56.308998 48.303001
-306.87299 56.308998 48.242001
-306.733 56.243 50.275002
-306.892 56.209 48.750999
-306.89801 56.290001 48.695999
-306.905 56.287998 48.633999
-306.91101 56.287998 48.574001
-306.91699 56.291 48.512001
-306.92401 56.290001 48.452999
-306.92999 56.286999 48.390999
-306.936 56.290001 48.330002
-306.94299 56.286999 48.269001
-306.94901 56.284 48.207001
-306.94601 56.269001 48.743
-306.953 56.264999 48.681
-306.95901 56.264999 48.619999
-306.965 56.264999 48.560001
-306.97198 56.266998 48.499001
-306.98499 56.268002 48.376999
-306.991 56.271 48.316002
-306.84201 56.202 50.285
-307.00101 56.181 48.761002
-307.00699 56.242001 48.703999
-307.01401 56.241001 48.644001
-307.01999 56.240002 48.582001
-307.02701 56.240002 48.521
-307.039 56.237 48.398998
-307.04599 56.234001 48.338001
-307.052 56.236 48.276001
-307.07199 56.105 48.789001
-307.077 56.215 48.736
-307.08401 56.223999 48.675999
-307.09 56.216 48.613998
-307.09601 56.220001 48.554001
-307.103 56.217999 48.492001
-307.10901 56.215 48.431
-307.12601 56.104 48.785
-307.13199 56.195 48.73
-307.138 56.198002 48.669998
-307.14499 56.194 48.608002
-307.15701 56.191002 48.485001
-307.164 56.174999 48.424
-307.19199 56.173 48.688
-307.19901 56.162998 48.625999
-307.20499 56.169998 48.566002
-307.21799 56.164001 48.443001
-307.224 56.168999 48.382
-307.23099 56.164001 48.320999
-307.259 56.141998 48.771
-307.272 56.141998 48.647999
-307.27802 56.143002 48.585999
-307.29099 56.152 48.466
-307.297 56.138 48.403
-307.319 56.119999 48.682999
-307.332 56.115002 48.561001
-307.259 55.738998 49.841
-307.272 55.691002 49.716
-307.297 55.757999 49.473999
-307.384 56.035999 49.334
-307.44699 56.077 48.726002
-307.45401 56.061001 48.664001
-307.54199 56.043999 48.339001
-307.47 56.016998 50.278999
-307.47501 56.040001 50.219002
-307.55301 56.001999 50.018002
-307.612 55.983002 49.974998
-307.638 55.98 49.73
-307.65701 55.967999 49.546001
-307.66299 55.974998 49.486
-307.61301 55.981998 50.674999
-307.74799 55.945999 49.389999
-308.103 55.772999 48.845001
-308.177 55.745998 48.869999
-308.22501 55.728001 48.907001
-308.23199 55.73 48.846001
-308.285 55.702999 48.870998
-308.29199 55.700001 48.808998
-308.30499 55.700001 48.687
-307.12601 55.263 49.359001
-307.15201 55.221001 49.109001
-307.15799 55.233002 49.048
-307.16501 55.229 48.985001
-307.17099 55.206001 48.923
-307.177 55.234001 48.862
-307.18399 55.210999 48.799
-307.13901 55.407001 49.948002
-307.17801 55.400002 49.577
-307.18399 55.433998 49.516998
-307.19101 55.425999 49.455002
-307.19699 55.428001 49.394001
-307.20999 55.414001 49.27
-307.24301 55.377998 48.958
-307.25 55.365002 48.896
-307.25601 55.362999 48.833
-307.26199 55.389999 48.772999
-307.19901 55.529999 49.868999
-307.237 55.556 49.501999
-307.24399 55.547001 49.438999
-307.25 55.534 49.376999
-307.25699 55.544998 49.314999
-307.29599 55.495998 48.942001
-307.302 55.487999 48.880001
-307.85101 55.639 50.226002
-308.04099 55.568001 50.210999
-308.14899 55.523998 50.212002
-308.28299 55.57 48.922001
-312.12201 53.973999 49.112
-312.12799 53.978001 49.048
-312.18201 53.890999 49.331001
-312.19 53.949001 49.208
-312.19699 53.945 49.144001
-312.203 53.949001 49.081001
-312.237 53.911999 49.319
-312.25 53.915001 49.193001
-312.25601 53.917999 49.129002
-312.263 53.915001 49.064999
-312.13199 53.613998 51.161999
-312.298 53.872002 49.333
-312.30301 53.888 49.27
-312.31 53.884998 49.206001
-312.31699 53.882 49.141998
-312.323 53.884998 49.080002
-307.66901 54.646999 54.958
-307.67599 54.644001 54.896
-307.68201 54.646 54.834
-307.689 54.639999 54.771
-307.69601 54.637001 54.709
-307.703 54.639 54.646
-307.70901 54.634998 54.584999
-307.716 54.633999 54.522999
-307.72198 54.633999 54.459999
-307.729 54.632999 54.397999
-307.73599 54.632 54.335999
-307.742 54.632999 54.273998
-307.74899 54.630001 54.212002
-307.755 54.627998 54.150002
-307.76199 54.625999 54.087002
-307.76999 54.580002 54.025002
-307.78101 54.334 53.966
-307.82001 54.379002 53.59
-307.927 54.298 52.589001
-307.93301 54.580002 52.469002
-307.94 54.571999 52.405998
-307.94601 54.583 52.344002
-307.953 54.574001 52.282001
-307.95999 54.574001 52.220001
-307.74399 54.616001 54.993999
-307.75 54.613998 54.931999
-307.75699 54.612 54.869999
-307.76401 54.611 54.806999
-307.76999 54.609001 54.745998
-307.77701 54.606998 54.682999
-307.78299 54.608002 54.620998
-307.79001 54.608002 54.557999
-307.797 54.605 54.495998
-307.80301 54.601002 54.435001
-307.81 54.604 54.372002
-307.81699 54.598999 54.310001
-307.823 54.599998 54.247002
-307.82999 54.597 54.185001
-307.836 54.598 54.123001
-307.84299 54.596001 54.061001
-307.85501 54.353001 54.000999
-307.89499 54.327 53.625
-307.901 54.351002 53.563
-308.008 54.549999 52.501999
-308.01501 54.546001 52.442001
-308.021 54.541 52.379002
-308.02802 54.541 52.316002
-308.035 54.542999 52.254002
-308.04099 54.549 52.191002
-308.08099 54.758999 51.761002
-307.80099 54.591 54.985001
-307.80701 54.589001 54.924
-307.814 54.585999 54.861
-307.82001 54.587002 54.799
-307.827 54.583 54.736
-307.83401 54.581001 54.674
-307.841 54.581001 54.612999
-307.84698 54.584999 54.549999
-307.854 54.581001 54.487999
-307.86099 54.575001 54.424999
-307.867 54.575001 54.362999
-307.87399 54.573002 54.299999
-307.88 54.573002 54.238998
-307.88699 54.569 54.176998
-307.89401 54.567001 54.113998
-307.89999 54.568001 54.051998
-307.91199 54.317001 53.991001
-307.952 54.305 53.617001
-307.95801 54.327999 53.554001
-308.061 54.419998 52.556
-308.065 54.523998 52.494999
-308.07199 54.52 52.432999
-308.08499 54.514999 52.307999
-308.09201 54.514999 52.245998
-308.09799 54.512001 52.182999
-308.10501 54.512001 52.120998
-308.112 54.492001 52.057999
-307.85501 54.562 55.012001
-307.86099 54.560001 54.950001
-307.86801 54.557999 54.887001
-307.87399 54.561001 54.826
-307.88101 54.556999 54.764
-307.888 54.556999 54.701
-307.89401 54.553001 54.639
-307.901 54.553001 54.576
-307.90701 54.551998 54.514
-307.914 54.550999 54.452
-307.92099 54.549 54.389999
-307.927 54.546001 54.327
-307.93399 54.542 54.264999
-307.94101 54.541 54.202999
-307.94699 54.541 54.140999
-307.95401 54.541 54.077999
-307.966 54.312 54.018002
-307.97299 54.285999 53.955002
-307.987 54.272999 53.830002
-307.99399 54.255001 53.768002
-308.01199 54.296001 53.580002
-308.11899 54.264999 52.578999
-308.11899 54.495998 52.519001
-308.12601 54.488998 52.458
-308.133 54.491001 52.395
-308.13901 54.487999 52.333
-308.14499 54.491001 52.27
-308.159 54.484001 52.146
-308.229 55.484001 51.244999
-307.939 54.534 54.987
-307.94501 54.528999 54.924999
-307.952 54.528999 54.862999
-307.95901 54.528999 54.800999
-307.966 54.523998 54.737999
-307.97198 54.521 54.675999
-307.979 54.518002 54.613998
-307.98599 54.519001 54.550999
-307.992 54.518002 54.488998
-307.99899 54.518002 54.425999
-308.005 54.518002 54.363998
-308.01199 54.514999 54.301998
-308.01901 54.513 54.240002
-308.02499 54.507999 54.176998
-308.03201 54.511002 54.113998
-308.04001 54.463001 54.051998
-308.05099 54.258999 53.991001
-308.05801 54.256001 53.93
-308.065 54.252998 53.867001
-308.07101 54.255001 53.804001
-308.078 54.258999 53.741001
-308.08499 54.256001 53.679001
-308.091 54.263 53.617001
-308.19699 54.462002 52.555
-308.20401 54.462002 52.493
-308.211 54.459 52.429001
-308.21701 54.458 52.368
-308.224 54.456001 52.305
-308.23099 54.451 52.243
-308.24399 54.446999 52.118
-308.25101 54.445 52.055
-308.29999 55.207001 51.394001
-308.30399 55.294998 51.335999
-307.987 54.507 55.034
-307.99301 54.505001 54.971001
-308 54.501999 54.908001
-308.00699 54.507 54.846001
-308.013 54.504002 54.784
-308.01999 54.500999 54.722
-308.02701 54.495998 54.659
-308.03299 54.492001 54.597
-308.04001 54.493 54.535
-308.04599 54.493999 54.473
-308.05301 54.493999 54.41
-308.06 54.491001 54.348
-308.06601 54.491001 54.285999
-308.073 54.488998 54.223
-308.07999 54.483002 54.160999
-308.086 54.485001 54.098999
-308.09799 54.269001 54.037998
-308.10599 54.230999 53.976002
-308.11301 54.209999 53.912998
-308.12 54.210999 53.851002
-308.12601 54.216999 53.787998
-308.134 54.185001 53.726002
-308.14499 54.241001 53.599998
-308.25201 54.432999 52.539001
-308.258 54.435001 52.477001
-308.26501 54.435001 52.415001
-308.272 54.431 52.352001
-308.27899 54.429001 52.289001
-308.285 54.432999 52.226002
-308.298 54.428001 52.102001
-308.30499 54.431 52.040001
-308.04401 54.481998 55.056
-308.05099 54.481998 54.993
-308.05801 54.474998 54.931
-308.064 54.473999 54.868999
-308.07101 54.467999 54.806
-308.077 54.470001 54.743999
-308.08401 54.471001 54.681
-308.091 54.467999 54.619999
-308.09698 54.466999 54.556999
-308.104 54.465 54.494999
-308.11099 54.463001 54.431999
-308.117 54.459999 54.369999
-308.12399 54.462002 54.307999
-308.13101 54.459999 54.244999
-308.13699 54.457001 54.182999
-308.14401 54.459 54.119999
-308.15302 54.365002 54.058998
-308.16501 54.179001 53.999001
-308.203 54.210999 53.623001
-308.31601 54.414001 52.497002
-308.323 54.403 52.435001
-308.32901 54.403 52.372002
-308.336 54.397999 52.311001
-308.34201 54.398998 52.248001
-308.349 54.397999 52.185001
-308.35599 54.396999 52.123001
-308.362 54.396 52.060001
-308.36899 54.396999 51.998001
-308.37601 54.393002 51.935001
-308.42999 55.577999 51.105
-308.121 54.446999 55.027
-308.12799 54.446999 54.965
-308.134 54.445999 54.902
-308.14099 54.448002 54.84
-308.14801 54.439999 54.778
-308.15399 54.443001 54.715
-308.16101 54.439999 54.653
-308.16699 54.436001 54.59
-308.17401 54.436001 54.528
-308.181 54.435001 54.466
-308.18799 54.432999 54.403
-308.194 54.431 54.341
-308.20099 54.431 54.278
-308.20801 54.424 54.216
-308.21399 54.426998 54.153
-308.22101 54.426998 54.091
-308.23401 54.178001 54.030998
-308.27399 54.161999 53.654999
-308.28 54.181 53.591
-308.39301 54.375999 52.466999
-308.39999 54.374001 52.403
-308.40601 54.373001 52.341
-308.41299 54.368999 52.278
-308.42001 54.370998 52.216
-308.42599 54.368 52.153999
-308.43301 54.368 52.091
-308.44 54.365002 52.028
-308.45499 54.514999 51.844002
-308.474 54.948002 51.544998
-308.18201 54.421001 55.014
-308.18799 54.418999 54.952
-308.19501 54.417 54.889
-308.20099 54.417999 54.827
-308.20801 54.412998 54.764
-308.215 54.410999 54.702
-308.22198 54.41 54.639999
-308.228 54.409 54.577999
-308.23499 54.408001 54.514999
