# .PCD v0.7 - Point Cloud Data file format
VERSION 0.7
FIELDS x y z
SIZE 4 4 4
TYPE F F F
COUNT 1 1 1
WIDTH 1498
HEIGHT 1
VIEWPOINT 0 0 0 1 0 0 0
POINTS 1498
DATA ascii
-1.045105 11.359642 -0.93629456
-1.0449524 11.299335 -0.93597412
-1.0465088 11.239973 -0.93203735
-1.0793152 11.186831 -0.8510437
-1.0863953 11.127371 -0.83204651
-1.0726624 10.638807 -0.87428284
-1.1574097 12.251772 -0.78642273
-1.1588745 12.190344 -0.78463745
-1.1522522 12.128174 -0.80114746
-1.14151 12.064064 -0.82901001
-1.1072083 11.993484 -0.91647339
-1.0830688 11.925661 -0.97889709
-1.0621338 11.858803 -1.0317841
-1.0359802 11.79104 -1.0988159
-1.0077515 11.72234 -1.1703796
-1.011322 11.662922 -1.1618347
-1.0353088 11.608982 -1.1032104
-1.0979309 11.565172 -0.94673157
-1.0968628 11.503897 -0.94821167
-1.0980835 11.443474 -0.9473877
-1.0980225 11.384161 -0.94709778
-1.1004333 11.323698 -0.94352722
-1.1001587 11.2624 -0.94317627
-1.1186523 11.205645 -0.89637756
-1.1434326 11.151682 -0.83592224
-1.1272278 10.663271 -0.88142395
-1.1484985 10.606432 -0.82821655
-1.2286377 12.274443 -0.79762268
-1.2280884 12.214149 -0.79820251
-1.2210999 12.150917 -0.81785583
-1.2205505 12.089548 -0.82063293
-1.1865234 12.019043 -0.90496826
-1.1626892 11.950211 -0.96644592
-1.1386719 11.883379 -1.0289154
-1.1133118 11.815586 -1.0940857
-1.0879517 11.747797 -1.1592407
-1.078064 11.684731 -1.1830902
-1.0827942 11.625269 -1.1717987
-1.165741 11.587025 -0.96298218
-1.1677246 11.526579 -0.96031189
-1.1671753 11.466286 -0.96092224
-1.1683655 11.405859 -0.96009827
-1.1689148 11.344534 -0.957901
-1.1705017 11.2841 -0.95617676
-1.1703796 11.223795 -0.95585632
-1.2089844 11.173534 -0.85990906
-1.209259 10.686674 -0.86567688
-1.1986389 10.624634 -0.89135742
-1.2834778 12.249489 -0.80882263
-1.2845459 12.189146 -0.80577087
-1.2803345 12.126902 -0.81678772
-1.2609558 12.059996 -0.86599731
-1.2385559 11.993109 -0.92480469
-1.2098999 11.924423 -0.99728394
-1.1787415 11.854824 -1.0752106
-1.1546326 11.786997 -1.1376495
-1.1333008 11.720156 -1.1914673
-1.1352844 11.660774 -1.1865997
-1.178772 11.611362 -1.0796661
-1.2209473 11.562059 -0.97328186
-1.2232361 11.501678 -0.96748352
-1.2232056 11.441294 -0.96939087
-1.2243652 11.380877 -0.96856689
-1.2242432 11.320566 -0.96824646
-1.2246399 11.26017 -0.96923828
-1.243988 11.204382 -0.92063904
-1.2600708 11.146631 -0.88153076
-1.2498779 10.659105 -0.91111755
-1.2700806 10.603292 -0.860672
-1.3394165 12.273764 -0.81767273
-1.3410034 12.214405 -0.8137207
-1.3354492 12.151201 -0.82746887
-1.3305664 12.0889 -0.84255981
-1.3026123 12.019199 -0.91317749
-1.2767944 11.950426 -0.97921753
-1.2464294 11.881868 -1.0531464
-1.2244263 11.814972 -1.1110077
-1.2034302 11.748121 -1.1639099
-1.1931458 11.683989 -1.1908417
-1.1954956 11.624605 -1.1850433
-1.2769165 11.586334 -0.98214722
-1.2785034 11.526972 -0.97821045
-1.2787781 11.46558 -0.97917175
-1.2799683 11.405159 -0.97834778
-1.2801208 11.343843 -0.9770813
-1.281311 11.283421 -0.97624207
-1.2816772 11.224096 -0.97503662
-1.3155212 11.170994 -0.88908386
-1.3252563 10.686907 -0.87164307
-1.309845 10.623938 -0.91052246
-1.4112244 12.244164 -0.8265686
-1.4129944 12.182798 -0.82162476
-1.4093933 12.121452 -0.83401489
-1.3899231 12.054625 -0.88101196
-1.3597107 11.984919 -0.95935059
-1.3273621 11.915359 -1.0400391
-1.3059387 11.847519 -1.0938263
-1.2813721 11.780775 -1.154953
-1.2585449 11.713909 -1.2146606
-1.2617188 11.65449 -1.2070465
-1.3348999 11.613417 -1.0246124
-1.3470154 11.555788 -0.99467468
-1.3486023 11.495354 -0.99291992
-1.3483582 11.434052 -0.99256897
-1.3492432 11.37464 -0.99269104
-1.348999 11.313337 -0.99234009
-1.3493958 11.252937 -0.99334717
-1.3740845 11.197979 -0.93286133
-1.3876648 11.140385 -0.89701843
-1.3743286 10.65181 -0.93835449
-1.4713745 12.225876 -0.8323822
-1.4692383 12.164562 -0.83885193
-1.4654236 12.102303 -0.84895325
-1.4371033 12.032612 -0.92050171
-1.4014282 11.962154 -1.0084686
-1.3795776 11.894331 -1.0631714
-1.3580627 11.828413 -1.120163
-1.336731 11.76157 -1.1739807
-1.3177795 11.695724 -1.2200775
-1.3221436 11.636274 -1.2097321
-1.4043884 11.597979 -1.0049744
-1.4055481 11.537552 -1.0041504
-1.4063416 11.477144 -1.0042267
-1.4065247 11.415829 -1.0029755
-1.4068909 11.355433 -1.0039673
-1.4066467 11.294132 -1.0036316
-1.4074402 11.233723 -1.0037079
-1.4403076 11.181574 -0.92276001
-1.4315796 10.63262 -0.95054626
-1.5263062 12.257244 -0.84288025
-1.528717 12.196779 -0.83930969
-1.5260925 12.134483 -0.84666443
-1.5128479 12.069454 -0.87997437
-1.4767761 11.99901 -0.96888733
-1.4501648 11.930262 -1.0367737
-1.4252319 11.862459 -1.1010284
-1.3996887 11.793755 -1.1639404
-1.3727417 11.727087 -1.2305908
-1.3780212 11.667532 -1.2206116
-1.4096375 11.614428 -1.142395
-1.4596252 11.567949 -1.016449
-1.4616089 11.507502 -1.0137939
-1.4622803 11.447172 -1.0116425
-1.4621582 11.385792 -1.0135345
-1.4624329 11.325472 -1.0122986
-1.4627991 11.265078 -1.0132904
-1.4764709 11.207396 -0.97969055
-1.5007629 11.152454 -0.92012024
-1.490509 10.66386 -0.95187378
-1.5059509 10.607128 -0.91464233
-1.6001587 12.229424 -0.85263062
-1.5982971 12.168169 -0.85594177
-1.59729 12.105824 -0.8596344
-1.5616455 12.034294 -0.9498291
-1.5385742 11.966507 -1.0072784
-1.5136719 11.899776 -1.0693207
-1.4833374 11.830147 -1.1454468
-1.45578 11.761507 -1.2129364
-1.4446411 11.697405 -1.2416992
-1.4503174 11.63891 -1.2286224
-1.5309448 11.599596 -1.0297241
-1.5312195 11.539276 -1.0285187
-1.5326843 11.477844 -1.0267334
-1.5318909 11.417482 -1.0304871
-1.5337219 11.357119 -1.0255737
-1.5332336 11.29575 -1.0283966
-1.5326843 11.235456 -1.0289917
-1.5667725 11.183271 -0.94528198
-1.5739746 11.123732 -0.92851257
-1.5560608 10.634375 -0.97766113
-1.6525269 12.264158 -0.85978699
-1.6548462 12.202703 -0.85618591
-1.6517944 12.140417 -0.86444092
-1.6358643 12.076471 -0.90420532
-1.6107483 12.007755 -0.96620178
-1.5787659 11.937105 -1.0481873
-1.5484314 11.868551 -1.1220856
-1.5245972 11.800785 -1.181366
-1.5004883 11.73296 -1.2437897
-1.5028687 11.673573 -1.2380066
-1.5190125 11.616816 -1.1989441
-1.5837402 11.573936 -1.0379028
-1.5856323 11.512493 -1.035202
-1.5838928 11.452236 -1.0385742
-1.5850525 11.391817 -1.0377197
-1.5853271 11.331495 -1.036499
-1.5848083 11.270128 -1.0392914
-1.5945129 11.211506 -1.0170593
-1.6252747 11.158426 -0.94065857
-1.6158752 10.669806 -0.97059631
-1.6250305 10.611273 -0.94703674
-1.7113342 12.278217 -0.86457825
-1.7132263 12.216774 -0.86186218
-1.7072754 12.153584 -0.87651062
-1.7034912 12.091322 -0.8866272
-1.6743164 12.02166 -0.9599762
-1.6389771 11.950193 -1.0470276
-1.6103516 11.881508 -1.1195068
-1.5883179 11.815685 -1.1751709
-1.5644836 11.747925 -1.2344513
-1.5549316 11.684849 -1.2573547
-1.5625 11.625296 -1.2396698
-1.6396179 11.586014 -1.0512543
-1.6410828 11.525661 -1.047287
-1.6409607 11.464277 -1.0491638
-1.6408386 11.403973 -1.0488434
-1.6411133 11.342577 -1.0498199
-1.6414795 11.283257 -1.0486298
-1.6426697 11.222832 -1.0477905
-1.6774597 11.169628 -0.9622345
-1.6704407 10.621616 -0.98638916
-1.7850647 12.244339 -0.8754425
-1.7842407 12.183977 -0.87919617
-1.7831116 12.121708 -0.88064575
-1.7617798 12.054863 -0.9344635
-1.7359009 11.987167 -0.99832153
-1.6985779 11.914688 -1.0921478
-1.6735535 11.846968 -1.1541595
-1.651001 11.780163 -1.2107239
-1.6272583 11.713394 -1.2700195
-1.6316528 11.653944 -1.2596741
-1.7073669 11.612709 -1.0739594
-1.7117615 11.553261 -1.0635986
-1.7137451 11.492813 -1.0609436
-1.7110901 11.431585 -1.0661011
-1.7138672 11.371115 -1.0615845
-1.7121277 11.310858 -1.0649414
-1.7140198 11.249413 -1.0622559
-1.7383118 11.194469 -1.0026855
-1.7352295 10.647404 -1.0154724
-1.8366394 12.273262 -0.87796021
-1.8365173 12.212955 -0.87763977
-1.8322754 12.150709 -0.88865662
-1.8308716 12.088375 -0.89326477
-1.7951355 12.016924 -0.98123169
-1.7606812 11.946428 -1.0664825
-1.7369385 11.879662 -1.1257629
-1.7081909 11.811058 -1.1960144
-1.6778564 11.741428 -1.2721252
-1.6793213 11.68107 -1.2681427
-1.6878052 11.62249 -1.248642
-1.7591248 11.580322 -1.0752106
-1.7605896 11.519968 -1.071228
-1.7613831 11.459557 -1.0713196
-1.7603455 11.398279 -1.0728149
-1.7622986 11.337833 -1.0701447
-1.7614136 11.277552 -1.0716705
-1.7641602 11.217075 -1.0671692
-1.791687 11.163105 -0.99807739
-1.7956543 10.677124 -0.99563599
-1.7967224 10.616779 -0.99256897
-1.9048462 12.227037 -0.88330078
-1.8991699 12.162842 -0.89700317
-1.8999634 12.1035 -0.8948822
-1.8651428 12.031948 -0.98323059
-1.834259 11.962414 -1.0580444
-1.8145447 11.895517 -1.1081848
-1.7841797 11.826963 -1.1820984
-1.7533264 11.756355 -1.259079
-1.743103 11.694298 -1.283844
-1.748291 11.634825 -1.2716522
-1.8262329 11.594442 -1.0836182
-1.8276978 11.53409 -1.0796509
-1.8267517 11.472733 -1.083374
-1.8275452 11.413393 -1.0812378
-1.8269958 11.35203 -1.0840454
-1.8269043 11.290649 -1.0859375
-1.8283691 11.230289 -1.081955
-1.8607483 11.177162 -1.0019073
-1.8508301 10.627172 -1.0346222
-1.9718018 12.25613 -0.89581299
-1.9719849 12.194815 -0.89456177
-1.9697266 12.132507 -0.90098572
-1.9450073 12.063772 -0.96208191
-1.9146729 11.995218 -1.0359802
-1.8940125 11.927353 -1.0879364
-1.8628845 11.858826 -1.1636658
-1.8300476 11.78828 -1.2452545
-1.809082 11.722494 -1.295929
-1.8146362 11.66301 -1.2828217
-1.8790894 11.618994 -1.1271362
-1.8928528 11.562311 -1.0935516
-1.8944397 11.501875 -1.0918274
-1.8937988 11.440584 -1.092392
-1.8936768 11.379206 -1.0942688
-1.8935547 11.318899 -1.0939636
-1.8938293 11.257507 -1.0949402
-1.9132996 11.201643 -1.0485687
-1.9308167 11.145844 -1.0067749
-1.9158936 10.654402 -1.0485229
-2.03125 12.231953 -0.8992157
-2.0262146 12.169731 -0.9120636
-2.026001 12.107357 -0.91394043
-1.9920349 12.037846 -0.99827576
-1.9647522 11.969271 -1.0626221
-1.9380493 11.9006 -1.1282806
-1.9069214 11.830999 -1.2062378
-1.8847656 11.764177 -1.2618866
-1.8658142 11.699406 -1.3057861
-1.8725891 11.639875 -1.2899323
-1.9485168 11.598492 -1.1086884
-1.9512939 11.539089 -1.1019745
-1.9514771 11.477774 -1.1007233
-1.9517517 11.416388 -1.1016998
-1.9526367 11.356966 -1.1018219
-1.9508057 11.295715 -1.1051178
-1.9522705 11.234289 -1.1033478
-1.9836121 11.181116 -1.0282593
-1.9813232 11.119879 -1.0325165
-1.9821472 11.059469 -1.032608
-1.9827881 10.999138 -1.0304413
-1.9840088 10.938713 -1.0296173
-1.9845276 10.877392 -1.0274353
-1.986969 10.816927 -1.0238647
-1.9863892 10.756636 -1.0244446
-1.9862976 10.695255 -1.0263367
-1.9702148 10.631386 -1.0638733
-1.9929504 10.575417 -1.0101776
-1.9968872 10.51491 -1.0029144
-1.9963989 10.454615 -1.0035248
-1.9967346 10.394217 -1.0045471
-1.9946289 10.332905 -1.0109863
-1.993988 10.271612 -1.0115662
-2.0855103 12.252363 -0.90847778
-2.0861511 12.190966 -0.90852356
-2.085144 12.129686 -0.91001892
-2.0613098 12.06192 -0.96929932
-2.0308533 11.992373 -1.0431824
-1.9996948 11.922773 -1.1210938
-1.9737549 11.85515 -1.1827545
-1.9473877 11.78647 -1.2474976
-1.92276 11.718735 -1.3085938
-1.929657 11.660202 -1.2927704
-1.9985657 11.617037 -1.1270447
-2.0066528 11.55847 -1.1084595
-2.0078125 11.499119 -1.105423
-2.0081177 11.437729 -1.1063843
-2.0078735 11.376425 -1.1060638
-2.0073547 11.315062 -1.1088409
-2.0068359 11.254763 -1.1094513
-2.0219421 11.197964 -1.0753632
-2.0204773 11.136703 -1.0777588
-2.019989 11.075338 -1.0805817
-2.0201111 11.014023 -1.0792999
-2.0214539 10.954594 -1.0785065
-2.0216675 10.894279 -1.0772858
-2.0231628 10.83285 -1.0755005
-2.0247498 10.772411 -1.0737457
-2.0270081 10.712029 -1.0679321
-2.0260925 10.650675 -1.0716705
-2.0247498 10.590408 -1.0740967
-2.0246277 10.529024 -1.0759888
-2.0256958 10.468685 -1.0729218
-2.026886 10.408258 -1.0720978
-2.0250549 10.347008 -1.0753937
-2.0302429 10.287531 -1.0632172
-2.1584778 12.274607 -0.92808533
-2.1619873 12.214184 -0.91950989
-2.159729 12.151875 -0.92596436
-2.1506042 12.087711 -0.95013428
-2.1247559 12.020014 -1.0139923
-2.0841064 11.94772 -1.112915
-2.0552673 11.87812 -1.183136
-2.03302 11.81138 -1.2365417
-2.0063477 11.743704 -1.3022308
-2.0005188 11.681511 -1.3169098
-2.0227966 11.626629 -1.2619171
-2.082428 11.581692 -1.1194458
-2.0840149 11.521261 -1.117691
-2.0812988 11.459038 -1.1228027
-2.083374 11.399584 -1.1201935
-2.0819397 11.33832 -1.1225891
-2.0847168 11.277849 -1.1180878
-2.0845947 11.216467 -1.1199799
-2.1194763 11.164257 -1.0344543
-2.1156616 10.676529 -1.0493622
-2.1167603 10.61511 -1.0485077
-2.2144775 12.244852 -0.9278717
-2.214325 12.184551 -0.92755127
-2.2134094 12.123194 -0.93127441
-2.1873779 12.054579 -0.99287415
-2.1516113 11.983131 -1.0808411
-2.1256409 11.914434 -1.1446533
-2.1022644 11.847729 -1.2008362
-2.0684814 11.777292 -1.2819824
-2.0508423 11.712397 -1.3254089
-2.059021 11.653749 -1.3090515
-2.1344604 11.61245 -1.1264801
-2.1347351 11.55213 -1.1252594
-2.1362915 11.491695 -1.1235046
-2.1361694 11.430315 -1.1253815
-2.1364746 11.369999 -1.1241608
-2.1358032 11.307638 -1.1269379
-2.1369019 11.247293 -1.1238708
-2.1618042 11.193254 -1.0656586
-2.1560669 10.64328 -1.083847
-2.2701416 12.266142 -0.93664551
-2.2721252 12.205698 -0.93397522
-2.2719116 12.144392 -0.93363953
-2.2566833 12.079424 -0.9715271
-2.2163086 12.006128 -1.0695038
-2.1920471 11.939447 -1.1275024
-2.1652832 11.870783 -1.193161
-2.1335449 11.800276 -1.2697449
-2.1094055 11.733522 -1.3299713
-2.1145935 11.674042 -1.3177795
-2.1636047 11.626373 -1.2012482
-2.1923828 11.572289 -1.1316376
-2.1928101 11.511889 -1.1326447
-2.1929321 11.450575 -1.1313629
-2.1961365 11.391163 -1.123764
-2.193573 11.329861 -1.1311646
-2.1951904 11.269423 -1.1294098
-2.1973572 11.208044 -1.1235657
-2.2203369 10.666294 -1.0734253
-2.2377319 10.609499 -1.0316315
-2.3449707 12.239212 -0.94680786
-2.3439331 12.176867 -0.95051575
-2.3425293 12.114532 -0.95510864
-2.3075867 12.044123 -1.039032
-2.2795105 11.974499 -1.1074066
-2.254364 11.906858 -1.1672058
-2.2223206 11.837357 -1.2447662
-2.1956787 11.769684 -1.3104401
-2.183136 11.704704 -1.3396912
-2.1907959 11.646147 -1.3220367
-2.265564 11.604795 -1.1435242
-2.2679443 11.54434 -1.1399384
-2.2669983 11.484056 -1.1414795
-2.2680664 11.422638 -1.1405945
-2.2684631 11.362246 -1.1416016
-2.2686462 11.300928 -1.1403503
-2.2690125 11.240532 -1.1413422
-2.3023071 11.187298 -1.0616913
-2.2925415 10.636379 -1.0912323
-2.4016113 12.283499 -0.95678711
-2.4046021 12.222094 -0.94911194
-2.4007568 12.159834 -0.959198
-2.393219 12.096693 -0.97753906
-2.3603821 12.02722 -1.0569
-2.329834 11.956678 -1.1307678
-2.3010559 11.888073 -1.201004
-2.2706299 11.818525 -1.2748718
-2.2509155 11.752701 -1.3228302
-2.2462463 11.691538 -1.33255
-2.2539673 11.63191 -1.3170929
-2.3253784 11.589668 -1.1458893
-2.3264465 11.528246 -1.1450348
-2.3254395 11.46697 -1.1464996
-2.3270874 11.407532 -1.1447906
-2.3252869 11.346281 -1.1481171
-2.3271484 11.284834 -1.1454315
-2.3274231 11.22452 -1.1441803
-2.3738403 11.173864 -1.0352936
-2.356781 10.622183 -1.0813293
-2.4622498 12.250225 -0.95758057
-2.4649658 12.188761 -0.95304871
-2.4615173 12.126488 -0.96221924
-2.4297791 12.055984 -1.0388184
-2.40625 11.988283 -1.0949554
-2.3717346 11.918863 -1.1779938
-2.3428955 11.849264 -1.2481995
-2.3194885 11.78256 -1.3043518
-2.3000488 11.715733 -1.3513641
-2.3081055 11.65716 -1.3327789
-2.3837585 11.616785 -1.1524811
-2.3868408 11.55637 -1.1448517
-2.3867188 11.494993 -1.1467438
-2.3856812 11.433718 -1.1482239
-2.3863525 11.372313 -1.1482697
-2.3883057 11.311867 -1.1456146
-2.3873901 11.251585 -1.1471252
-2.4110107 11.196587 -1.091629
-2.4110718 10.648426 -1.0970459
-2.5336609 12.283945 -0.96868896
-2.532959 12.221659 -0.96922302
-2.5324097 12.160294 -0.9720459
-2.5200195 12.095236 -1.0035095
-2.4919739 12.026682 -1.0697021
-2.4602051 11.956177 -1.146286
-2.4280396 11.886755 -1.2216034
-2.4055176 11.819954 -1.2781677
-2.3757324 11.750456 -1.3479767
-2.3761292 11.69006 -1.3489685
-2.384613 11.631477 -1.329483
-2.4561157 11.589155 -1.1605072
-2.4576111 11.528795 -1.1565247
-2.4590759 11.467365 -1.1547546
-2.4573669 11.407112 -1.1581116
-2.4584351 11.345694 -1.1572418
-2.4578247 11.284407 -1.1578064
-2.4580688 11.223013 -1.1587982
-2.4952087 11.171654 -1.0709381
-2.4931641 10.621494 -1.0831146
-2.586731 12.259197 -0.97911072
-2.5889587 12.197741 -0.97549438
-2.5887451 12.136436 -0.97515869
-2.5675964 12.06867 -1.0257874
-2.5309448 11.99732 -1.1133575
-2.5012817 11.927744 -1.1853943
-2.4795532 11.861986 -1.2379303
-2.446991 11.79258 -1.3141479
-2.4255371 11.725815 -1.3657227
-2.4328308 11.666197 -1.351181
-2.5067749 11.6238 -1.1767273
-2.5141602 11.566242 -1.1600037
-2.5126343 11.503992 -1.162384
-2.5137939 11.443567 -1.1615448
-2.5123596 11.382303 -1.1639557
-2.51474 11.32184 -1.1603699
-2.5133057 11.26058 -1.1627655
-2.5263062 11.202848 -1.1332245
-2.5536194 11.148737 -1.0695038
-2.5413818 10.657282 -1.1026306
-2.649353 12.273758 -0.98774719
-2.6520081 12.21336 -0.98101807
-2.6523132 12.151972 -0.98199463
-2.6369629 12.08708 -1.0176544
-2.6001892 12.01474 -1.1051788
-2.5722351 11.94611 -1.1735992
-2.5487061 11.878412 -1.2297363
-2.51651 11.808996 -1.3050385
-2.4885864 11.741434 -1.3712463
-2.4942627 11.681868 -1.3603668
-2.5329895 11.630457 -1.2688599
-2.5774841 11.580856 -1.164566
-2.5768738 11.519573 -1.1651459
-2.5792542 11.459112 -1.1615601
-2.5787048 11.397745 -1.1643677
-2.5789795 11.337427 -1.1631317
-2.5792542 11.276035 -1.164093
-2.5790405 11.214731 -1.1637726
-2.6157532 11.162313 -1.0790558
-2.615448 10.674549 -1.0834808
-2.6207275 10.614992 -1.0735016
-2.7192078 12.239374 -0.99476624
-2.7153015 12.176123 -1.0048218
-2.7162476 12.114782 -1.0017548
-2.6766968 12.042528 -1.0956879
-2.6331177 11.96933 -1.2009888
-2.6074524 11.90177 -1.2594757
-2.5914307 11.83683 -1.2992096
-2.571991 11.770002 -1.3462067
-2.5595398 11.706022 -1.375473
-2.5647583 11.646545 -1.3632813
-2.6452637 11.605936 -1.1742249
-2.6476746 11.545469 -1.1706543
-2.6479187 11.485153 -1.1694031
-2.6477966 11.423775 -1.1713104
-2.6463623 11.362511 -1.1736908
-2.6470642 11.301104 -1.1737518
-2.6474304 11.240709 -1.1747589
-2.6836548 11.187305 -1.0909119
-2.6748962 10.635435 -1.1154633
-2.7740479 12.270821 -1.0030365
-2.7755127 12.209393 -1.0012512
-2.7737122 12.147064 -1.0067749
-2.7477722 12.079447 -1.0684204
-2.7208862 12.010853 -1.1318359
-2.6965332 11.943184 -1.1898041
-2.6626892 11.872818 -1.2687378
-2.6391602 11.805122 -1.3248749
-2.6173096 11.738369 -1.3773804
-2.6155396 11.678114 -1.380722
-2.6703796 11.631184 -1.2536316
-2.7037964 11.577873 -1.1761932
-2.7049255 11.516451 -1.1753387
-2.7038574 11.455179 -1.1768188
-2.7021179 11.394922 -1.1801605
-2.7035828 11.333494 -1.1783905
-2.7038574 11.272099 -1.1793671
-2.7045288 11.211767 -1.1772156
-2.7498779 11.161072 -1.0733032
-2.7437439 10.671497 -1.0904999
-2.7531433 10.612814 -1.0713959
-2.8362122 12.285465 -1.0103607
-2.8369751 12.225058 -1.010437
-2.8343506 12.162764 -1.0177917
-2.8179932 12.095909 -1.0552368
-2.7882385 12.026413 -1.1250458
-2.7622986 11.95772 -1.1888733
-2.7294312 11.889318 -1.2660522
-2.7062683 11.821609 -1.3212585
-2.6864014 11.755867 -1.3669739
-2.6822205 11.693619 -1.3779907
-2.6905823 11.634043 -1.3584595
-2.7676392 11.593466 -1.1798859
-2.7669983 11.532177 -1.1804504
-2.7677002 11.470774 -1.1805115
-2.7679749 11.409382 -1.181488
-2.7674255 11.349085 -1.1820831
-2.7668152 11.286726 -1.1848602
-2.7675781 11.227388 -1.1827393
-2.8116455 11.175734 -1.081543
-2.8016663 10.623899 -1.1088562
-2.9085693 12.251711 -1.0217438
-2.9049683 12.18852 -1.0286713
-2.9002991 12.126287 -1.0406036
-2.8739014 12.05768 -1.1031189
-2.8441162 11.988184 -1.1729431
-2.8103943 11.917742 -1.2541046
-2.7905579 11.850927 -1.3020325
-2.7710571 11.78517 -1.346817
-2.7488098 11.718433 -1.4002228
-2.755188 11.658913 -1.3852844
-2.8374329 11.619249 -1.1925964
-2.839447 11.558798 -1.1899414
-2.839325 11.497421 -1.1918182
-2.8399048 11.436096 -1.1896362
-2.8398743 11.375711 -1.1915588
-2.8408508 11.314369 -1.1884766
-2.8391113 11.253038 -1.1940155
-2.8631287 11.198032 -1.1376038
-2.8875122 11.141937 -1.0824738
-2.8695679 10.64967 -1.1283722
-2.9621887 12.296532 -1.023819
-2.9621582 12.236149 -1.0257416
-2.9569702 12.171938 -1.0385437
-2.9497986 12.108786 -1.0559387
-2.9192505 12.039316 -1.1275787
-2.8799438 11.967125 -1.2183685
-2.8635559 11.902195 -1.2590332
-2.8378906 11.834644 -1.3175049
-2.8123169 11.767008 -1.3782196
-2.8031921 11.702845 -1.4023895
-2.809967 11.64332 -1.3865509
-2.8921204 11.602655 -1.1938019
-2.8921204 11.542273 -1.1957245
-2.893158 11.481928 -1.1926575
-2.8922729 11.42057 -1.1963959
-2.8933411 11.359154 -1.1955261
-2.8931274 11.297857 -1.1951904
-2.8947754 11.238415 -1.1934509
-2.9335327 11.185932 -1.1041412
-2.944397 11.12727 -1.0791779
-2.9242554 10.63308 -1.1295929
-3.0274353 12.260605 -1.0310211
-3.0262756 12.198332 -1.0324707
-3.0211792 12.135115 -1.0453033
-2.9956055 12.067484 -1.1060028
-2.9576416 11.996254 -1.1940918
-2.9364624 11.92848 -1.2447205
-2.9129333 11.860781 -1.3008423
-2.8877869 11.793139 -1.3606567
-2.8671265 11.727419 -1.4081879
-2.8727112 11.667927 -1.3950653
-2.9517822 11.626219 -1.2141113
-2.9589539 11.566677 -1.1973267
-2.9579468 11.5054 -1.198822
-2.9582825 11.445005 -1.1998291
-2.9577026 11.383715 -1.2003937
-2.9600525 11.323254 -1.1968079
-2.9586487 11.261988 -1.1992188
-2.9653931 11.201391 -1.1855621
-2.9873352 11.145452 -1.1336975
-2.9897766 11.085983 -1.1301422
-2.9904785 11.024578 -1.1302032
-2.9910278 10.963257 -1.1280212
-2.9909363 10.901873 -1.1299286
-2.9902649 10.840584 -1.1304779
-2.9935913 10.781096 -1.1251068
-2.9918213 10.719765 -1.130661
-2.9911194 10.657482 -1.1311951
-3.0115051 10.601513 -1.0852203
-3.0994568 12.282173 -1.042572
-3.0997314 12.221853 -1.0413513
-3.0950012 12.158625 -1.0532532
-3.0803223 12.092722 -1.0870514
-3.0420837 12.021421 -1.1782684
-3.0196228 11.953764 -1.2294312
-2.9942017 11.887125 -1.2901764
-2.9598389 11.815783 -1.3700104
-2.9378357 11.749109 -1.4202576
-2.9423828 11.689571 -1.4121399
-2.9675293 11.634529 -1.352951
-3.0314941 11.590302 -1.2058105
-3.0309753 11.528938 -1.2086029
-3.0315552 11.467609 -1.2064362
-3.0309143 11.405249 -1.2092133
-3.0325012 11.34481 -1.2074585
-3.0339966 11.284454 -1.2034912
-3.033844 11.223074 -1.205368
-3.0762634 11.17255 -1.1056213
-3.0729065 10.621428 -1.1205444
-3.1504517 12.251656 -1.0511017
-3.1489868 12.190397 -1.0534973
-3.1463928 12.128096 -1.0608826
-3.107605 12.056889 -1.1507721
-3.0860596 11.989126 -1.2023163
-3.0580139 11.920576 -1.2684937
-3.0270386 11.85112 -1.3410492
-3.0071106 11.784382 -1.3867493
-2.9938354 11.720425 -1.4178619
-2.9987183 11.660883 -1.4087982
-3.0818176 11.620117 -1.2164917
-3.082489 11.559786 -1.2143402
-3.0831604 11.498377 -1.2144012
-3.0846558 11.436951 -1.212616
-3.0841064 11.376654 -1.2132263
-3.0856018 11.315228 -1.211441
-3.0841675 11.253962 -1.2138367
-3.1020508 11.197079 -1.1733246
-3.1350708 11.142704 -1.0990143
-3.1175537 10.650423 -1.1440277
-3.2133484 12.271349 -1.0554352
-3.2147522 12.20892 -1.0536194
-3.2120972 12.147697 -1.0587769
-3.1818848 12.077215 -1.1294708
-3.1604004 12.01045 -1.1810608
-3.1305542 11.941034 -1.2486267
-3.0979919 11.871626 -1.3248596
-3.0769348 11.804852 -1.3755188
-3.0520935 11.73727 -1.4321747
-3.0568542 11.677805 -1.4208832
-3.1138 11.630733 -1.2914429
-3.1452026 11.577484 -1.2185974
-3.1462708 11.516069 -1.2177277
-3.1469727 11.455736 -1.2155914
-3.1468201 11.394358 -1.2174683
-3.1474304 11.331955 -1.2174988
-3.1473694 11.272648 -1.2172089
-3.1492615 11.211201 -1.2145386
-3.2003174 11.161322 -1.0978241
-3.187561 10.668892 -1.1318207
-3.1992798 10.610203 -1.1049957
-3.2900085 12.301678 -1.0612488
-3.2886047 12.23934 -1.0658569
-3.2825317 12.176229 -1.0782623
-3.2765503 12.11204 -1.0929108
-3.246582 12.04455 -1.163681
-3.2203979 11.974936 -1.2252502
-3.1861572 11.904589 -1.3050995
-3.1636963 11.836927 -1.3562622
-3.1401367 11.770308 -1.4101868
-3.1343689 11.709105 -1.4248962
-3.1383057 11.647596 -1.4176331
-3.2193604 11.606899 -1.2298889
-3.2200317 11.545492 -1.2299347
-3.2207336 11.484085 -1.2299957
-3.2209778 11.423771 -1.2287445
-3.2228699 11.362324 -1.2260742
-3.2223206 11.302031 -1.2266693
-3.2233276 11.239618 -1.2257843
-3.261322 11.188158 -1.1383362
-3.2561951 10.636171 -1.1546326
-3.3421326 12.277039 -1.0712585
-3.3440857 12.216585 -1.0686035
-3.3413391 12.154367 -1.0737305
-3.3258972 12.088484 -1.1093597
-3.298645 12.019909 -1.1737061
-3.2605896 11.94768 -1.2617645
-3.2366333 11.881069 -1.3165894
-3.2113647 11.812431 -1.376358
-3.1817017 11.743931 -1.4461975
-3.1880798 11.68441 -1.4312592
-3.2368469 11.635603 -1.3200836
-3.2748108 11.584143 -1.2326202
-3.2755432 11.522736 -1.2326813
-3.2748718 11.461454 -1.2332611
-3.2756042 11.400045 -1.2333221
-3.2757263 11.338734 -1.2320404
-3.2760315 11.277338 -1.2330322
-3.2775879 11.216906 -1.2312775
-3.3274536 11.167065 -1.1173248
-3.329071 10.677172 -1.1193542
-3.3259888 10.615959 -1.1253967
-3.402771 12.237631 -1.0754242
-3.3956604 12.17448 -1.0928192
-3.3979492 12.114096 -1.0870056
-3.3647766 12.042713 -1.1641083
-3.3288879 11.972412 -1.2476044
-3.3031311 11.903866 -1.3060608
-3.2823792 11.837151 -1.3535919
-3.2469177 11.766834 -1.4361877
-3.2460022 11.705484 -1.4398956
-3.2507629 11.646021 -1.4286346
-3.3352356 11.606133 -1.2358093
-3.3351135 11.544754 -1.2376862
-3.3345032 11.483467 -1.2382813
-3.3363647 11.422024 -1.2355804
-3.3366394 11.361702 -1.2343445
-3.3369141 11.300312 -1.235321
-3.3388062 11.238867 -1.2326355
-3.3808594 11.187281 -1.1360321
-3.3723755 10.634399 -1.1596222
-3.4755249 12.273071 -1.0914612
-3.4703064 12.208864 -1.104248
-3.4772034 12.149261 -1.0906067
-3.4609375 12.083401 -1.1280975
-3.4231873 12.011238 -1.2129974
-3.396698 11.94264 -1.2754974
-3.3731689 11.876013 -1.3294373
-3.3417664 11.80764 -1.4007111
-3.3181458 11.738951 -1.4568024
-3.3262024 11.680378 -1.4382324
-3.3901978 11.635078 -1.2932892
-3.410553 11.579115 -1.2472992
-3.4120789 11.517685 -1.2455292
-3.4114075 11.456396 -1.2460938
-3.4134216 11.395945 -1.2434387
-3.4130554 11.333649 -1.2430573
-3.4151917 11.274197 -1.2404327
-3.4144287 11.211912 -1.2409515
-3.4681091 11.162876 -1.1210175
-3.4527588 10.668528 -1.1604767
-3.4714355 10.611618 -1.1181183
-3.5319824 12.318583 -1.0947723
-3.533844 12.257145 -1.0920715
-3.5337219 12.195765 -1.0939636
-3.5317993 12.133518 -1.0972443
-3.5013123 12.065041 -1.1689301
-3.4746399 11.995523 -1.2291718
-3.4510193 11.927902 -1.2830811
-3.4241638 11.85931 -1.3465118
-3.3943481 11.79089 -1.4141235
-3.3741455 11.725163 -1.4607544
-3.3800964 11.665657 -1.446701
-3.4671021 11.625616 -1.2506409
-3.4701843 11.564133 -1.2451935
-3.4696655 11.503843 -1.2457886
-3.46875 11.442486 -1.249527
-3.4700928 11.381136 -1.2455139
-3.4715881 11.319704 -1.2437286
-3.4727783 11.259285 -1.2429047
-3.4802551 11.198734 -1.2251892
-3.5075684 10.653702 -1.169342
-3.5935669 12.277231 -1.0938873
-3.5945129 12.214821 -1.0930023
-3.5923767 12.153505 -1.0994568
-3.5698242 12.084852 -1.1505737
-3.5428467 12.016342 -1.2117767
-3.5202026 11.949615 -1.2661133
-3.4875488 11.880283 -1.3401031
-3.4617615 11.811733 -1.3985443
-3.4368896 11.744154 -1.4551849
-3.4395752 11.683762 -1.4484711
-3.4941711 11.635687 -1.3267212
-3.5285339 11.583271 -1.2497253
-3.530365 11.521906 -1.2447968
-3.530304 11.461517 -1.2467194
-3.5317993 11.400093 -1.2449493
-3.5314331 11.337795 -1.2445526
-3.5313721 11.277487 -1.2442627
-3.5336914 11.217026 -1.2406769
-3.6377563 11.17844 -1.0061646
-3.5792236 10.614103 -1.1433868
-3.6724854 12.238897 -1.1016541
-3.6656799 12.174738 -1.1181183
-3.661438 12.112492 -1.1291351
-3.631134 12.043089 -1.1976318
-3.6087341 11.97543 -1.2487793
-3.5780029 11.906036 -1.3181915
-3.5477905 11.83663 -1.3867035
-3.5279236 11.770891 -1.4324036
-3.5133667 11.705976 -1.466217
-3.5214539 11.64633 -1.4498749
-3.6089783 11.607269 -1.2528992
-3.6086121 11.544977 -1.2525177
-3.6085205 11.483597 -1.2544098
-3.6083679 11.423288 -1.2540894
-3.6106873 11.361834 -1.2504883
-3.6113281 11.30043 -1.2505341
-3.611908 11.239103 -1.2483826
-3.6589355 11.18828 -1.1430206
-3.6448059 10.633509 -1.1816101
-3.7257996 12.265549 -1.107132
-3.7220154 12.203287 -1.1172638
-3.721344 12.141998 -1.1178131
-3.6997375 12.074318 -1.1671448
-3.6756592 12.005636 -1.2241669
-3.6424866 11.935329 -1.2990417
-3.6193237 11.868692 -1.3520355
-3.5973511 11.802019 -1.4023132
-3.5675049 11.732603 -1.4698792
-3.5715027 11.673159 -1.460434
-3.6589661 11.633032 -1.2656708
-3.6649475 11.573526 -1.2516632
-3.6656189 11.512127 -1.2516937
-3.6646118 11.450846 -1.2532043
-3.6663513 11.388412 -1.250473
-3.6662598 11.328102 -1.2501526
-3.6673279 11.266689 -1.2492828
-3.6701355 11.206213 -1.244812
-3.7238464 10.665411 -1.1273346
-3.785675 12.285484 -1.1134186
-3.7862854 12.223085 -1.1134491
-3.7849731 12.161743 -1.1180878
-3.7732239 12.097815 -1.1432953
-3.7470703 12.02928 -1.2026672
-3.7134094 11.957983 -1.2784424
-3.6860352 11.889481 -1.3405304
-3.6673584 11.823706 -1.3835144
-3.631012 11.753492 -1.4657135
-3.6300659 11.692141 -1.4694366
-3.6710205 11.640511 -1.3778076
-3.7264709 11.593409 -1.2542572
-3.727356 11.531076 -1.2511292
-3.7281189 11.470669 -1.2512207
-3.7292175 11.409248 -1.2503662
-3.7297363 11.347927 -1.2481842
-3.7292786 11.286554 -1.2510071
-3.7323303 11.225075 -1.2455444
-3.9555969 11.214718 -0.74409485
-3.7819519 10.62302 -1.1391296
-3.8646851 12.249294 -1.1167908
-3.8607483 12.186037 -1.1268616
-3.8583984 12.123808 -1.131073
-3.8302612 12.054256 -1.1972198
-3.7998657 11.983862 -1.2656708
-3.7763367 11.918308 -1.3174133
-3.7546692 11.850632 -1.3667297
-3.725708 11.782179 -1.4325104
-3.707428 11.716385 -1.4745483
-3.7120972 11.655931 -1.4632568
-3.8041077 11.616652 -1.2584381
-3.8057251 11.556217 -1.2566833
-3.8066711 11.494873 -1.2535858
-3.8069458 11.433481 -1.2545624
-3.8076172 11.372082 -1.2546234
-3.8078003 11.310766 -1.2533569
-3.8085938 11.250355 -1.2534637
-3.8403931 11.196026 -1.1818848
-4.0110168 11.172289 -0.79946899
-4.0116272 11.10989 -0.79951477
-4.0138855 11.048433 -0.79589844
-4.0140991 10.987123 -0.79463196
-4.0135193 10.925756 -0.79742432
-4.0124207 10.862415 -0.80110168
-4.0121765 10.801111 -0.80075073
-4.009552 10.738815 -0.80809021
-3.8382874 10.641943 -1.1907959
-4.009491 10.615126 -0.80870056
-4.0084534 10.553846 -0.81018066
-4.0106506 10.491404 -0.80654907
-4.0097351 10.430046 -0.81028748
-4.0107117 10.36871 -0.80717468
-4.0101013 10.306345 -0.80995178
-4.0091553 10.246063 -0.8114624
-3.9252625 12.283398 -1.1177216
-3.9262085 12.222057 -1.1146088
-3.9214783 12.158831 -1.1265259
-3.9079285 12.092964 -1.1553345
-3.8745422 12.023582 -1.2333984
-3.8492126 11.955019 -1.2909241
-3.8259277 11.887386 -1.3439178
-3.7980652 11.818979 -1.4047089
-3.7661743 11.749626 -1.4768677
-3.7698975 11.690123 -1.4705658
-3.8095093 11.637535 -1.3816528
-3.8654175 11.590424 -1.2572021
-3.8664551 11.529007 -1.2563324
-3.8678589 11.467651 -1.2523193
-3.8672791 11.406288 -1.2551422
-3.867981 11.344887 -1.255188
-3.8689575 11.283545 -1.2520905
-3.8696289 11.222139 -1.2521515
-3.9951782 11.188786 -0.97242737
-4.006012 11.129128 -0.94741821
-4.0062256 11.068811 -0.94616699
-4.0060425 11.006437 -0.94802856
-4.0104065 10.945915 -0.93986511
-4.0101929 10.883537 -0.94172668
-4.0098572 10.821243 -0.94134521
-4.0065308 10.759966 -0.95056152
-4.0029907 10.697773 -0.95753479
-3.9421692 10.624344 -1.0945892
-4.0100708 10.575777 -0.94483948
-4.0089111 10.513508 -0.94628906
-4.0101318 10.453087 -0.94546509
-4.007782 10.390856 -0.94967651
-4.0080566 10.329462 -0.95063782
-4.0086365 10.267061 -0.95066833
-3.9814758 12.302675 -1.124588
-3.9838257 12.24122 -1.1209717
-3.9824524 12.179878 -1.1255951
-3.9789734 12.11661 -1.1347656
-3.9419556 12.044426 -1.2178345
-3.9195862 11.977762 -1.2689972
-3.8971558 11.911177 -1.3179626
-3.8676453 11.841749 -1.384613
-3.8385925 11.772303 -1.4503784
-3.8252563 11.708429 -1.479248
-3.8300476 11.64789 -1.4701691
-3.9254761 11.610502 -1.2581024
-3.9281311 11.549034 -1.2535706
-3.9279175 11.487734 -1.2532196
-3.9289856 11.426311 -1.2523804
-3.928772 11.365015 -1.2520142
-3.9290466 11.303623 -1.2529907
-3.9322205 11.243137 -1.2475739
-3.9648438 11.188776 -1.1741791
-3.9741516 11.129097 -1.1550598
-3.9768066 11.068699 -1.1483307
-3.9777832 11.006285 -1.1474304
-3.9792786 10.945929 -1.1434631
-3.9775391 10.884604 -1.1490173
-3.9797974 10.823147 -1.145401
-3.9794922 10.760851 -1.1450195
-3.9785461 10.699497 -1.1487579
-3.9549866 10.633944 -1.2004852
-3.9926147 10.580353 -1.1183472
-3.9919128 10.518064 -1.1188812
-3.9904785 10.45573 -1.1234894
-3.9911804 10.394327 -1.1235504
-3.9859924 10.332186 -1.1341553
-3.9884033 10.271723 -1.1305847
-4.0621643 12.267429 -1.1243286
-4.0629578 12.207018 -1.1244049
-4.0588989 12.142771 -1.1344452
-4.0302429 12.074387 -1.1970673
-4.0081482 12.006718 -1.2473145
-3.9833679 11.93914 -1.3039551
-3.958374 11.870562 -1.3605804
-3.9255981 11.801315 -1.4323273
-3.9036255 11.734638 -1.482605
-3.906311 11.67424 -1.4758759
-3.9993286 11.635855 -1.2714844
-4.0039978 11.575397 -1.2601929
-4.0062866 11.513943 -1.2565613
-4.0064392 11.451557 -1.2575073
-4.0071106 11.391224 -1.2553711
-4.0082092 11.329805 -1.2545013
-4.0074768 11.267525 -1.2550354
-4.0098572 11.207066 -1.2514496
-4.0175476 11.14743 -1.2360229
-4.0189209 11.086081 -1.2319946
-4.0176086 11.02474 -1.2366333
-4.0190735 10.963308 -1.234848
-4.0184326 10.902018 -1.2354279
-4.0178223 10.839657 -1.238205
-4.01651 10.779392 -1.2406311
-4.0178833 10.716967 -1.2388306
-4.0185242 10.656631 -1.2366791
-4.0183105 10.594259 -1.2385406
-4.0189514 10.532854 -1.2386017
-4.0191956 10.471544 -1.2373352
-4.0211182 10.411093 -1.2346649
-4.0197144 10.349831 -1.2370758
-4.0203857 10.288425 -1.2371216
-4.1232605 12.244202 -1.1240997
-4.1185913 12.180965 -1.1360016
-4.1100159 12.11694 -1.1538849
-4.0822754 12.048452 -1.2169189
-4.0588989 11.979824 -1.2698669
-4.0311279 11.911341 -1.3328857
-4.0004883 11.843023 -1.400116
-3.9797058 11.776312 -1.4476166
-3.9638977 11.710436 -1.4841766
-3.9681091 11.649994 -1.4737701
-4.068512 11.612373 -1.2529297
-4.0700684 11.551933 -1.2511902
-4.068573 11.489677 -1.2535706
-4.0692139 11.428272 -1.2536163
-4.0690002 11.366974 -1.2532806
-4.0691528 11.304586 -1.2542267
-4.0701904 11.24424 -1.2511597
-4.0714111 11.183817 -1.2503204
-4.0711975 11.121449 -1.2521667
-4.0725403 11.060095 -1.2481842
-4.0736084 10.998674 -1.2472992
-4.0751343 10.937246 -1.2455292
-4.0749817 10.876942 -1.2452087
-4.076355 10.81559 -1.2412109
-4.0762634 10.75421 -1.2430878
-4.078125 10.692764 -1.2404022
-4.0795898 10.631332 -1.2386322
-4.0781555 10.570074 -1.2410278
-4.0800781 10.508631 -1.238327
-4.0806274 10.447302 -1.2361603
-4.0805054 10.385923 -1.2380371
-4.080658 10.324612 -1.2367859
-4.0823669 10.265169 -1.2350616
-4.1522827 12.066145 -1.1970673
-4.1286316 11.999598 -1.248764
-4.1024475 11.931065 -1.308136
-4.073761 11.861609 -1.3729706
-4.043396 11.79228 -1.4392242
-4.026062 11.727457 -1.4794769
-4.0316467 11.666893 -1.4685669
-4.1294556 11.629429 -1.2509766
-4.1313477 11.567984 -1.2483063
-4.132843 11.506557 -1.246521
-4.1314087 11.445293 -1.2489319
-4.1340637 11.383825 -1.2443848
-4.1342773 11.32251 -1.2431488
-4.1333313 11.261154 -1.2468567
-4.1338196 11.198837 -1.2446442
-4.1349792 11.138414 -1.2438202
-4.1356506 11.077009 -1.243866
-4.1374512 11.01564 -1.2389526
-4.138092 10.954245 -1.2389832
-4.1374817 10.892952 -1.2395782
-4.1393127 10.831509 -1.2368774
-4.1400452 10.7701 -1.2369385
-4.140686 10.709772 -1.234787
-4.1408997 10.647385 -1.235733
-4.140625 10.586084 -1.2353821
-4.1421509 10.524654 -1.2336121
-4.1419983 10.464344 -1.2332916
-4.1450806 10.402868 -1.2278595
-4.1448364 10.340492 -1.2297058
-4.1451416 10.28017 -1.2284851
-4.221283 12.032345 -1.2211761
-4.1933289 11.96294 -1.2819519
-4.1594238 11.893652 -1.3586884
-4.1369019 11.826069 -1.407608
-4.1075134 11.757635 -1.4742889
-4.1014709 11.694521 -1.4867249
-4.1210938 11.637506 -1.4447784
-4.2108154 11.598228 -1.2477112
-4.2118835 11.53681 -1.2468262
-4.2112732 11.475519 -1.2474213
-4.211853 11.413122 -1.2474365
-4.2136841 11.351683 -1.2447357
-4.211792 11.289438 -1.2480469
-4.2137451 11.228989 -1.2453613
-4.2127075 11.167711 -1.2468567
-4.215271 11.105249 -1.2422791
-4.2164917 11.044823 -1.2414703
-4.216156 10.982533 -1.2410889
-4.2181396 10.922079 -1.2384186
-4.2196045 10.860649 -1.2366638
-4.2202148 10.799324 -1.2344818
-4.2200623 10.737947 -1.2363586
-4.2205505 10.675627 -1.2341461
-4.2226257 10.616171 -1.2315369
-4.2232056 10.554842 -1.2293549
-4.2225647 10.492485 -1.2321167
-4.2231445 10.431156 -1.22995
-4.2233887 10.369764 -1.2309265
-4.2254028 10.309315 -1.228241
-4.2258606 10.246994 -1.2260437
-4.2608643 12.012163 -1.2583923
-4.2453918 11.946278 -1.2940369
-4.2150269 11.876955 -1.3603058
-4.1893616 11.809399 -1.4187775
-4.1572876 11.739126 -1.488678
-4.1634521 11.680542 -1.4769135
-4.2131348 11.630556 -1.3683472
-4.2709656 11.58231 -1.2414856
-4.2720032 11.520969 -1.2384186
-4.2738342 11.459528 -1.2357025
-4.271759 11.398211 -1.2421875
-4.2726746 11.336872 -1.23909
-4.272583 11.275494 -1.2409668
-4.2747803 11.213043 -1.2373352
-4.2753296 11.151718 -1.2351685
-4.2765198 11.091293 -1.2343292
-4.2749634 11.029037 -1.2366943
-4.2772522 10.967579 -1.2330933
-4.2775574 10.906189 -1.2340698
-4.2785034 10.844852 -1.2309875
-4.2799988 10.783421 -1.229187
-4.2806702 10.723087 -1.2270508
-4.28125 10.660686 -1.2270813
-4.2819519 10.599283 -1.2271423
-4.2833862 10.538929 -1.2231445
-4.2827759 10.476563 -1.2259369
-4.2842407 10.416206 -1.2219391
-4.2849121 10.354803 -1.2220001
-4.2850952 10.292418 -1.2229462
-4.2987061 11.905886 -1.3222656
-4.2720337 11.837446 -1.3803253
-4.2417603 11.768034 -1.4488068
-4.2242126 11.702295 -1.4868011
-4.2307129 11.6427 -1.4740906
-4.4324951 11.629734 -1.0309448
-4.3679199 11.879137 -1.3452606
-4.3421326 11.811661 -1.4015045
-4.3027649 11.740627 -1.487854
-4.3050232 11.679167 -1.4842529
-4.3465576 11.628445 -1.3939667
-4.3883362 11.796188 -1.4273682
-4.3617859 11.727663 -1.4876556
-4.3648376 11.667252 -1.480011
-4.438446 11.622427 -1.3207092
-4.4396667 11.756079 -1.4525604
-4.4214172 11.690287 -1.4946289
-4.4330139 11.630606 -1.4677734
-4.507019 11.719183 -1.4847107
-4.5063782 11.656828 -1.4874878
-4.0077515 10.476118 -0.48895264
-4.009552 10.413679 -0.48622131
-4.0094299 10.352301 -0.4881134
-4.0100098 10.290974 -0.4859314
-3.9976501 11.162056 -0.64968872
-3.9981995 11.100735 -0.64750671
-4.002533 11.039213 -0.63931274
-4.0021362 10.976919 -0.63894653
-4.0028687 10.91551 -0.63900757
-4.0055237 10.854044 -0.63447571
-4.0036316 10.7918 -0.63777161
-4.0000916 10.728533 -0.64691162
-4.0063171 10.606564 -0.63606262
-4.0018921 10.543402 -0.64482117
-4.0029907 10.481981 -0.64396667
-4.0002441 10.419764 -0.64906311
-4.0009155 10.358358 -0.6491394
-3.9981995 10.295073 -0.65646362
-5.2765503 7.6792393 0.15200806
-5.1852722 6.670742 -0.052322388
-5.1850891 6.6083622 -0.054199219
-5.1838074 6.5450993 -0.055618286
-5.1848145 6.482687 -0.054733276
-5.1860657 6.4192696 -0.052902222
-5.187561 6.3589077 -0.048919678
-15.822357 8.6678562 -1.1104126
-15.773315 8.5960979 -1.1860046
-15.766846 8.5300846 -1.1960907
-15.902527 8.4733868 -0.98988342
-15.935852 8.4092045 -0.93983459
-15.992828 8.7655811 -1.0024109
-15.935059 8.6943264 -1.0905609
-15.890167 8.6234341 -1.1570282
-15.868469 8.5542049 -1.1910706
-15.888336 8.4887524 -1.1613617
-16.053345 8.7419949 -1.0160828
-16.00177 8.6703968 -1.0949554
-15.946747 8.5980587 -1.1766663
-15.949127 8.5325298 -1.1742554
-16.092926 8.6861515 -1.0690918
-16.052277 8.6159763 -1.1309052
-16.02887 8.5468769 -1.1663818
-16.086487 8.4843922 -1.0789032
-16.168121 8.6474895 -1.1003265
-16.125397 8.5774517 -1.1644897
-16.139038 8.5123425 -1.1440887
-16.23526 8.6224689 -1.1060181
-16.205872 8.5527134 -1.149826
-16.242126 8.4883633 -1.0956116
-16.29483 8.5776653 -1.1261749
-16.304291 8.5117664 -1.1126404
-16.393372 8.5477924 -1.1216431
-15.59491 8.3809566 -0.97888184
-15.599731 8.3142796 -0.97317505
-15.600586 8.2468853 -0.97122192
-15.604187 8.1813221 -0.96604919
-15.607635 8.1147709 -0.96086121
-15.658478 8.0506573 -0.88354492
-15.641174 7.514616 -0.91177368
-15.663208 6.5129032 -0.87960815
-15.616913 6.4440632 -0.94979858
-15.617188 6.3786716 -0.94973755
-15.616974 6.3123074 -0.95057678
-15.618225 6.2448978 -0.94770813
-15.743256 8.9334354 -0.86911011
-15.687103 8.8610592 -0.95578003
-15.638062 8.7893009 -1.0314026
-15.595062 8.720274 -1.0964966
-15.547607 8.6484623 -1.168457
-15.496582 8.5778484 -1.2464294
-15.511963 8.5126095 -1.2245636
-15.673584 8.4585629 -0.97727966
-15.682617 8.3926754 -0.9646759
-15.682678 8.3253078 -0.96455383
-15.687897 8.2596989 -0.95571899
-15.6922 8.1920376 -0.95089722
-15.693207 8.1256351 -0.94898987
-15.731934 8.0622044 -0.88931274
-15.731171 7.5252705 -0.89204407
-15.702728 6.4539165 -0.9369812
-15.7034 6.388525 -0.93600464
-15.703735 6.3201466 -0.93493652
-15.704865 6.2547359 -0.93302917
-15.817627 8.8918819 -0.89894104
-15.756744 8.8187962 -0.9912262
-15.704803 8.7472134 -1.0709991
-15.656708 8.676424 -1.1448059
-15.617737 8.6061954 -1.2029572
-15.601105 8.5387325 -1.2282715
-15.693298 8.4793224 -1.0903931
-15.774445 8.4185619 -0.96737671
-15.779907 8.3519459 -0.95758057
-15.781403 8.2854519 -0.95698547
-15.783997 8.2189999 -0.9513855
-15.787109 8.1524563 -0.94709778
-15.792206 8.0847721 -0.94046021
-15.82132 7.4839115 -0.89601135
-15.800232 6.4784794 -0.93127441
-15.798706 6.4122295 -0.93260193
-15.800537 6.3447285 -0.93104553
-15.801056 6.2783337 -0.93003845
-15.803253 6.210825 -0.92755127
-15.820068 8.7911358 -0.99745178
-15.765198 8.7197132 -1.0814209
-15.711243 8.6492634 -1.1635895
-15.673065 8.5779362 -1.2221069
-15.683777 8.5129986 -1.2058411
-15.84848 8.458704 -0.95661926
-15.850281 8.3922749 -0.9528656
-15.85257 8.3257542 -0.95042419
-15.853424 8.2583599 -0.94845581
-15.858643 8.1916714 -0.94184875
-15.862854 8.1240978 -0.93478394
-15.873596 6.4512653 -0.92225647
-15.873718 6.3848972 -0.9221344
-15.877533 6.3173313 -0.91601563
-15.875122 6.2501049 -0.91914368
-15.91037 8.8098354 -0.97663879
-15.859253 8.7382221 -1.0545959
-18.327271 6.3802204 -0.46920776
-18.327148 6.3108578 -0.4690094
-18.328918 6.2433605 -0.46746826
-18.376404 8.8326283 -0.504776
-18.318207 8.7595425 -0.58840942
-18.259949 8.6854572 -0.67201233
-18.205658 8.6141682 -0.74966431
-18.208557 8.5456371 -0.74533081
-18.332397 8.4851742 -0.57003784
-18.388336 8.4206791 -0.48840332
-18.387115 8.3523464 -0.49101257
-18.387482 8.2839718 -0.4899292
-18.390015 8.2154484 -0.48652649
-18.391571 8.1459599 -0.4848938
-18.394073 8.0774403 -0.48147583
-18.393585 8.0080891 -0.48222351
-18.39563 7.9395809 -0.47970581
-18.396027 7.8712025 -0.47865295
-18.394287 7.8018932 -0.4821167
-18.397217 7.7333584 -0.4777832
-18.395447 7.6651211 -0.47906494
-18.39624 7.5956554 -0.47927856
-18.398865 7.5281277 -0.47589111
-18.395416 7.458952 -0.48080444
-18.401215 7.3902493 -0.47229004
-18.399872 7.3209286 -0.47483826
-18.400696 7.2525311 -0.47286987
-18.401978 7.1840496 -0.47218323
-18.403137 7.1156521 -0.46928406
-18.403534 7.0461941 -0.47041321
-18.404724 6.9777927 -0.4675293
-18.347046 8.9271374 -0.43606567
-18.297607 8.853548 -0.50712585
-18.296967 8.4412937 -0.50930786
-18.299866 8.3727589 -0.50495911
-18.298096 8.3034573 -0.50843811
-18.301056 8.2349186 -0.50410461
-18.303558 8.166399 -0.5007019
-18.303894 8.0980206 -0.49961853
-18.306 8.0295086 -0.49711609
-18.307159 7.9600353 -0.49641418
-18.310211 7.8924961 -0.49211121
-18.309296 7.8231564 -0.49375916
-18.311646 7.7536449 -0.49029541
-18.309265 7.6864223 -0.49345398
-18.310822 7.6169376 -0.49182129
-18.312012 7.5485325 -0.48892212
-18.312775 7.4790707 -0.48913574
-18.313965 7.4106655 -0.48623657
-18.313141 7.3423214 -0.4879303
-18.314758 7.2728329 -0.48629761
-18.315155 7.2044468 -0.48524475
-18.317505 7.1349354 -0.48178101
-18.318024 7.0675526 -0.48074341
-18.317474 6.998209 -0.48147583
-18.320953 6.9305706 -0.47848511
-18.321655 6.8611851 -0.47647095
-18.321259 6.7928295 -0.47721863
-18.320343 6.7234936 -0.47888184
-18.32312 6.6539707 -0.47451782
-18.325012 6.5874615 -0.47299194
-18.325165 6.5170956 -0.47184753
-18.323181 6.4498615 -0.47409058
0.65371704 11.677877 -0.31123352
0.62155151 11.627047 -0.22232056
0.49053955 11.725273 -0.02935791
0.6031189 11.63059 -0.34384155
0.46185303 11.611101 0.048171997
0.29925537 11.906837 0.29444885
0.36355591 11.825422 0.11404419
0.43310547 11.743166 -0.07824707
0.53079224 11.653301 -0.35005188
0.45605469 11.61384 -0.14205933
0.23208618 7.9435158 0.42854309
0.23040771 7.8811512 0.4335022
0.22802734 7.8206959 0.43708801
0.23147583 7.7594967 0.43008423
0.2310791 7.6990948 0.42909241
0.23120117 7.638792 0.42941284
0.23062134 7.5763931 0.42939758
0.23348999 7.516098 0.42105103
0.23287964 7.4536991 0.42103577
0.2333374 7.3944016 0.4203949
0.23181152 7.3329678 0.42216492
0.234375 7.2716618 0.41477966
0.23339844 7.2103252 0.4178772
0.23553467 7.1490078 0.41140747
0.23364258 7.0886402 0.41630554
0.23287964 7.0282307 0.41621399
0.23422241 6.9679623 0.41378784
0.23522949 6.9056129 0.41011047
0.23565674 6.8452415 0.40725708
0.23510742 6.7839127 0.40943909
0.23721313 6.7225971 0.40298462
0.23733521 6.6622906 0.40327454
0.23815918 6.6008606 0.39733887
0.23828125 6.5405502 0.39764404
0.23809814 6.4781628 0.39671326
0.23852539 6.4188671 0.39607239
0.23706055 6.3585072 0.40005493
0.23956299 6.2961292 0.39047241
0.23690796 6.2357388 0.39720154
0.23675537 6.1744232 0.39845276
0.27835083 11.931303 0.20814514
0.33703613 11.852919 0.047164917
0.40783691 11.769632 -0.15005493
0.47042847 11.691299 -0.32243347
0.47744751 11.628067 -0.34207153
0.32104492 11.612171 0.085952759
0.21685791 10.783525 0.3629303
0.21374512 10.723118 0.37057495
0.21389771 10.661739 0.36869812
0.21334839 10.538954 0.366745
0.21725464 10.292624 0.35414124
0.2144165 10.170914 0.36210632
0.21401978 10.110516 0.3611145
0.21536255 10.049175 0.35649109
0.2166748 9.9878368 0.35185242
0.21743774 9.9255524 0.3513031
0.21859741 9.8641319 0.34443665
0.2166748 9.8047543 0.3493042
0.2180481 9.7424183 0.34468079
0.21749878 9.681097 0.34687805
0.21841431 9.6197376 0.34315491
0.21936035 9.5583839 0.33944702
0.22027588 9.4970341 0.33570862
0.22039795 9.4367275 0.33602905
0.21881104 9.3762894 0.33778381
0.22183228 9.314003 0.32949829
0.22167969 9.2526894 0.33076477
0.22259521 9.1913395 0.32704163
0.22021484 9.1319485 0.33282471
0.22354126 9.0695992 0.32141113
0.22286987 9.009264 0.32354736
0.2237854 8.9479141 0.31983948
0.22561646 8.8866615 0.31651306
0.22244263 8.8261757 0.32192993
0.22265625 8.7648716 0.32226563
0.2230835 8.7045021 0.31944275
0.22531128 8.6421909 0.31298828
0.22692871 8.5818596 0.30741882
0.22998047 8.5195713 0.29914856
0.22827148 8.4601326 0.30085754
0.22772217 8.3988056 0.30303955
0.22872925 8.3375263 0.30154419
0.23117065 8.2761478 0.29194641
0.23165894 8.2147827 0.28910828
0.23303223 8.1545143 0.28669739
0.23153687 8.0941525 0.29067993
0.230896 8.032753 0.29063416
0.22979736 7.9724064 0.29367065
0.23074341 7.9110508 0.28996277
0.23391724 7.850769 0.28071594
0.22940063 7.7893162 0.29205322
0.23217773 7.7290173 0.28372192
0.23043823 7.6676521 0.28865051
0.2333374 7.6063614 0.28034973
0.2322998 7.5460205 0.28341675
0.23193359 7.4856224 0.28240967
0.23483276 7.4243317 0.27410889
0.23266602 7.362957 0.27996826
0.23550415 7.3026543 0.27163696
0.23361206 7.2422867 0.27651978
0.23614502 7.1809826 0.26913452
0.23266602 7.1205654 0.27770996
0.2355957 7.0592728 0.26937866
0.23562622 6.998888 0.26748657
0.23812866 6.9375858 0.26008606
0.23745728 6.8772545 0.26225281
0.23867798 6.816906 0.2575531
0.23773193 6.7555695 0.26066589
0.23535156 6.6951065 0.26423645
0.23635864 6.6338291 0.26277161
0.23919678 6.5735359 0.25442505
0.23840332 6.5131226 0.2543335
0.23693848 6.4527626 0.25831604
0.24066162 6.3915043 0.24819946
0.24121094 6.3301373 0.24537659
0.23931885 6.2697659 0.25027466
0.23986816 6.2094765 0.24967957
0.23986816 6.1490841 0.24775696
0.22436523 12.005371 0.17683411
0.27816772 11.928907 0.029022217
0.33804321 11.849493 -0.13690186
0.41867065 11.763449 -0.35826111
0.4720459 11.68697 -0.50515747
0.459198 11.630392 -0.47117615
0.3338623 11.606047 -0.1268158
0.21566772 11.579706 0.19441223
0.2154541 11.518391 0.19567871
0.21841431 11.456032 0.18516541
0.21582031 11.39571 0.19412231
0.21606445 11.333338 0.192276
0.21725464 11.272987 0.18760681
0.21780396 11.211624 0.18479919
0.21801758 11.149254 0.18295288
0.21737671 11.088919 0.18510437
0.22039795 11.026636 0.17681885
