# .PCD v0.7 - Point Cloud Data file format
VERSION 0.7
FIELDS x y z
SIZE 4 4 4
TYPE F F F
COUNT 1 1 1
WIDTH 1785
HEIGHT 1
VIEWPOINT 0 0 0 1 0 0 0
POINTS 1785
DATA ascii
33.144001 -24.910999 0.054000001
33.063 -24.853001 -0.032000002
32.582001 -23.610001 28.535
32.592999 -23.621 28.419001
32.686001 -23.691999 28.375999
32.832001 -23.802 28.377001
32.977001 -23.91 28.377001
33.120998 -24.017 28.375
33.268002 -24.128 28.375
33.417 -24.239 28.375999
33.561001 -24.347 28.372999
33.601002 -24.379999 28.280001
33.602001 -24.384001 28.155001
33.601002 -24.386999 28.028999
33.599998 -24.389 27.903
33.598999 -24.392 27.778
33.596001 -24.393 27.65
33.591999 -24.393 27.524
33.59 -24.395 27.398001
33.587002 -24.396999 27.273001
33.585999 -24.399 27.149
33.581001 -24.402 26.9
33.556999 -24.388 26.759001
33.578999 -24.407 26.653999
33.577999 -24.409 26.532
33.577 -24.412001 26.41
33.578999 -24.417 26.292
33.652 -24.473 26.228001
32.509998 -23.652 24.99
32.513 -23.657 24.875999
32.511002 -23.659 24.76
32.508999 -23.660999 24.643999
32.508999 -23.664 24.528999
32.507 -23.666 24.413
32.505001 -23.667 24.298
32.504002 -23.669001 24.183001
32.500999 -23.67 24.068001
32.498001 -23.671 23.952
32.518002 -23.688999 23.854
32.665001 -23.799 23.849001
32.807999 -23.907 23.84
32.955002 -24.017 23.833
33.042999 -24.084 23.783001
33.419998 -24.365 23.826
33.486 -24.416 23.757999
33.542 -24.459999 23.684
33.551998 -24.471001 23.577
33.553001 -24.474001 23.462999
33.550999 -24.476 23.349001
33.587002 -24.504999 23.26
33.640999 -24.548 23.184
33.889999 -24.732 23.242001
32.509998 -23.733999 21.969
32.550999 -23.767 21.888
32.554001 -23.771999 21.782
32.556 -23.775999 21.674999
32.558998 -23.781 21.57
32.558998 -23.785 21.462
32.561001 -23.789 21.356001
32.562 -23.792 21.25
32.567001 -23.799 21.146
32.492001 -23.747 20.990999
32.486 -23.745001 20.881001
32.624001 -23.849001 20.863001
32.782001 -23.968 20.857
32.917 -24.07 20.837
32.966 -24.108 20.761
33.286999 -24.346001 20.855
33.431 -24.454 20.837
32.856998 -24.040001 20.268
32.924 -24.091999 20.204
33.573002 -24.577999 20.174
34.794998 -25.476 20.798
32.509998 -23.816999 18.917999
32.554001 -23.851999 18.841999
32.553001 -23.854 18.739
32.550999 -23.855 18.636
32.549 -23.857 18.533001
32.548 -23.858 18.431
32.547001 -23.861 18.329
32.544998 -23.862 18.226999
32.542999 -23.863001 18.125
32.453999 -23.801001 17.975
32.423 -23.780001 17.857
32.535999 -23.865999 17.819
32.727001 -24.009001 17.823
32.914001 -24.149 17.823999
33.035999 -24.240999 17.788
32.855999 -24.120001 17.290001
32.942001 -24.186001 17.235001
33.473999 -24.582001 17.311001
33.514 -24.614 17.23
33.777 -24.813 17.160999
33.793999 -24.827999 17.068001
33.785 -24.823999 16.962
32.471001 -23.868999 15.913
32.493 -23.888 15.827
32.490002 -23.889 15.729
32.487999 -23.889 15.631
32.486 -23.889999 15.534
32.483002 -23.891001 15.436
32.481998 -23.893 15.339
32.479 -23.893999 15.242
32.477001 -23.895 15.145
32.452 -23.879 15.038
32.383999 -23.830999 14.911
32.435001 -23.871 14.839
32.640999 -24.025 14.838
32.845001 -24.177999 14.835
33.050999 -24.332001 14.831
32.657001 -24.049999 14.368
32.643002 -24.042999 14.267
32.640999 -24.044001 14.172
32.655998 -24.056999 14.083
32.686001 -24.082001 14.002
35.286999 -26.006001 14.81
35.528999 -26.188 14.81
35.766998 -26.365999 14.806
36.013 -26.549999 14.804
32.402 -23.898001 12.948
32.443001 -23.93 12.872
32.456001 -23.941999 12.785
32.453999 -23.944 12.692
32.452999 -23.945 12.599
32.452 -23.947001 12.507
32.451 -23.948999 12.414
32.451 -23.951 12.322
32.450001 -23.954 12.23
32.449001 -23.955 12.138
32.432999 -23.945 12.04
32.331001 -23.872999 11.911
32.376999 -23.909 11.837
32.601002 -24.077 11.827
32.845001 -24.26 11.824
33.084999 -24.440001 11.817
33.377998 -24.663 11.641
33.383999 -24.67 11.55
33.382 -24.672001 11.456
33.379002 -24.672001 11.362
33.41 -24.697001 11.28
33.435001 -24.719 11.195
32.380001 -23.962999 9.9460001
32.425999 -23.999001 9.8710003
32.422001 -23.997999 9.7810001
32.417 -23.997 9.6899996
32.411999 -23.996 9.6000004
32.407001 -23.995001 9.5100002
32.403 -23.993999 9.4189997
32.398998 -23.993 9.3299999
32.395 -23.993 9.2399998
32.390999 -23.993 9.1499996
32.387001 -23.992001 9.0609999
32.306999 -23.934999 8.9499998
32.299999 -23.931999 8.8599997
33.345001 -24.722 8.6040001
33.346001 -24.724001 8.5139999
33.346001 -24.726999 8.4230003
33.341999 -24.726 8.3319998
33.383999 -24.76 8.2519999
33.394001 -24.77 8.165
33.391998 -24.771 8.0740004
33.389 -24.771 7.9829998
33.391998 -24.775999 7.8940001
33.389999 -24.777 7.8039999
33.389999 -24.778999 7.7140002
33.388 -24.780001 7.6240001
33.387001 -24.782 7.5339999
33.383999 -24.785 7.3540001
32.348999 -24.021 6.9530001
32.373001 -24.041 6.8709998
32.369999 -24.041 6.7839999
32.367001 -24.041 6.697
32.363998 -24.042 6.6100001
32.362 -24.042 6.5229998
32.361 -24.044001 6.4359999
32.360001 -24.045 6.3499999
32.359001 -24.047001 6.263
32.359001 -24.049 6.177
32.346001 -24.042 6.0890002
32.223999 -23.952999 5.98
32.221001 -23.952999 5.8930001
32.220001 -23.955 5.8080001
32.220001 -23.957001 5.7220001
32.219002 -23.959 5.6360002
32.216 -23.959999 5.5500002
33.224998 -24.716999 5.46
33.244999 -24.733999 5.375
33.339001 -24.806 5.302
33.713001 -25.087 5.2719998
33.719002 -25.094 5.184
33.349998 -24.853001 3.8959999
33.275002 -24.804001 3.625
33.223999 -24.768 3.5320001
33.224998 -24.771 3.4449999
33.226002 -24.774 3.358
33.224998 -24.775999 3.27
33.223999 -24.778 3.1830001
33.223999 -24.780001 3.096
33.223999 -24.783001 3.0090001
33.222 -24.783001 2.921
33.220001 -24.784 2.8340001
33.217999 -24.785 2.747
33.216 -24.785999 2.6600001
33.215 -24.787001 2.573
33.214001 -24.789 2.4849999
33.212002 -24.790001 2.398
33.210999 -24.792 2.3110001
33.207001 -24.791 2.224
33.205002 -24.792 2.1370001
33.202 -24.792 2.05
33.199001 -24.792 1.9629999
33.193001 -24.790001 1.876
33.205002 -24.848 0.052999999
33.001999 -24.698999 -0.034000002
32.636002 -23.546 28.537001
32.646 -23.556999 28.42
32.738998 -23.627001 28.375999
32.891998 -23.740999 28.384001
33.036999 -23.848 28.382999
33.18 -23.955 28.379999
33.327 -24.065001 28.379999
33.474998 -24.174999 28.379999
33.618 -24.282 28.375
33.653 -24.311001 28.278999
33.654999 -24.316 28.155001
33.654999 -24.318001 28.028999
33.653 -24.320999 27.903
33.647999 -24.320999 27.774
33.645 -24.320999 27.646
33.644001 -24.323999 27.521999
33.639999 -24.325001 27.395
33.638 -24.326 27.27
33.636002 -24.329 27.146
33.627998 -24.326 27.017
33.632 -24.332001 26.898001
33.610001 -24.32 26.757999
33.631001 -24.337999 26.653
33.629002 -24.34 26.530001
33.626999 -24.341999 26.407
33.636002 -24.351 26.294001
33.702 -24.403 26.225
32.566002 -23.589001 24.993
32.566002 -23.591999 24.877001
32.563 -23.593 24.76
32.562 -23.596001 24.643999
32.563 -23.599001 24.530001
32.560001 -23.6 24.414
32.556999 -23.601999 24.298
32.555 -23.603001 24.183001
32.555 -23.606001 24.069
32.550999 -23.606001 23.952999
32.574001 -23.625999 23.857
32.719002 -23.733999 23.85
32.870998 -23.847 23.847
33.021 -23.959 23.841999
33.318001 -24.181 23.827999
33.488998 -24.308001 23.836
33.576 -24.384001 23.441999
33.603001 -24.406 23.346001
33.646 -24.441 23.263
33.686001 -24.473 23.177999
33.941002 -24.660999 23.239
32.562 -23.667999 21.968
32.604 -23.702 21.888
32.609001 -23.708 21.783001
32.609001 -23.711 21.676001
32.612 -23.716 21.57
32.612999 -23.719999 21.462999
32.615002 -23.724001 21.357
32.617001 -23.729 21.250999
32.623001 -23.736 21.148001
32.550999 -23.686001 20.995001
32.539001 -23.68 20.881001
32.676998 -23.784 20.863001
32.839001 -23.905001 20.860001
32.981998 -24.011999 20.844
33.044998 -24.059999 20.775999
32.841999 -23.921 20.330999
32.848 -23.927999 20.23
32.855999 -23.937 20.129
32.874001 -23.952999 20.035
33.605999 -24.492001 20.267
33.630001 -24.513 20.174999
34.848999 -25.403999 20.795
32.563 -23.752001 18.917999
32.610001 -23.788 18.843
32.608002 -23.790001 18.74
32.608002 -23.792999 18.638
32.605999 -23.794001 18.535
32.605 -23.796 18.433001
32.603001 -23.797001 18.33
32.601002 -23.798 18.228001
32.598999 -23.799999 18.125999
32.512001 -23.739 17.976999
32.479 -23.718 17.858999
32.585999 -23.799 17.816999
32.775002 -23.938999 17.82
32.953999 -24.073 17.816
33.047001 -24.143 17.764999
32.880001 -24.032 17.274
32.958 -24.091999 17.215
33.530998 -24.516001 17.311001
33.574001 -24.549999 17.232
33.851002 -24.768999 16.764
32.522999 -23.802999 15.912
32.548 -23.823999 15.828
32.546001 -23.825001 15.73
32.542999 -23.826 15.632
32.541 -23.827 15.534
32.537998 -23.827 15.437
32.536999 -23.829 15.34
32.535 -23.83 15.243
32.532001 -23.83 15.146
32.508999 -23.816 15.039
32.438999 -23.768 14.912
32.484001 -23.802999 14.837
32.688 -23.955 14.835
32.895 -24.108999 14.832
33.062 -24.233999 14.811
35.345001 -25.936001 14.81
35.591999 -26.120001 14.811
35.825001 -26.292999 14.805
36.071999 -26.478001 14.804
32.457001 -23.834 12.949
32.497002 -23.865999 12.872
32.511002 -23.878 12.785
32.509998 -23.879999 12.692
32.507999 -23.881001 12.599
32.507 -23.882999 12.507
32.506001 -23.885 12.414
32.506001 -23.886999 12.322
32.504002 -23.888 12.229
32.502998 -23.889999 12.137
32.487 -23.881001 12.04
32.384998 -23.809 11.911
32.431 -23.844999 11.837
32.653 -24.011 11.826
32.900002 -24.195 11.823
33.129002 -24.365 11.813
33.438 -24.603001 11.549
33.438 -24.605 11.456
33.436001 -24.606001 11.362
33.464001 -24.629 11.278
33.488998 -24.65 11.194
32.433998 -23.898001 9.9449997
32.48 -23.934 9.8699999
32.476002 -23.934 9.7799997
32.472 -23.933001 9.6899996
32.466999 -23.931999 9.599
32.463001 -23.931999 9.5089998
32.459 -23.931 9.4189997
32.455002 -23.93 9.3290005
32.451 -23.93 9.2399998
32.448002 -23.93 9.1499996
32.443001 -23.929001 9.0609999
32.368999 -23.877001 8.9519997
32.355 -23.868999 8.8599997
33.402 -24.655001 8.6029997
33.402 -24.658001 8.5129995
33.400002 -24.659 8.4219999
33.396 -24.659 8.3310003
33.443001 -24.695999 8.2519999
32.407001 -23.959 6.9520001
32.428001 -23.976999 6.8699999
32.424999 -23.976999 6.783
32.421001 -23.976 6.6960001
32.418999 -23.976999 6.6090002
32.417 -23.978001 6.5219998
32.415001 -23.979 6.4349999
32.412998 -23.98 6.348
32.411999 -23.981001 6.2620001
32.412998 -23.983999 6.1760001
32.394001 -23.972 6.086
32.277 -23.888 5.9780002
32.276001 -23.889999 5.8920002
32.273998 -23.891001 5.8060002
32.272999 -23.892 5.7210002
32.272999 -23.893999 5.6350002
32.271 -23.896 5.5489998
33.284 -24.653 5.4590001
33.305 -24.671 5.3740001
33.766998 -25.018 5.2709999
33.771 -25.023001 5.1820002
33.403999 -24.784 3.8940001
33.321999 -24.73 3.622
33.278999 -24.701 3.53
33.279999 -24.704 3.4430001
33.280998 -24.707001 3.3559999
33.279999 -24.709 3.2690001
33.278999 -24.711 3.181
33.279999 -24.714001 3.0940001
33.278 -24.715 3.007
33.277 -24.716 2.9200001
33.276001 -24.716999 2.8329999
33.272999 -24.718 2.7449999
33.27 -24.718 2.658
33.27 -24.719999 2.5710001
33.266998 -24.721001 2.484
33.268002 -24.724001 2.3970001
33.265999 -24.724001 2.3099999
33.264 -24.725 2.2219999
33.261002 -24.725 2.135
33.257999 -24.726 2.0480001
33.256001 -24.726999 1.961
33.237999 -24.715 1.873
33.252998 -24.775999 0.050999999
32.68 -24.358 -0.292
32.691002 -23.482 28.539
32.702 -23.493999 28.424
32.790001 -23.559999 28.375
32.941002 -23.672001 28.381001
33.089001 -23.782 28.382
33.23 -23.886999 28.378
33.380001 -23.997 28.379999
33.529999 -24.108 28.381001
33.671001 -24.214001 28.374001
33.710999 -24.246 28.282
33.709999 -24.249001 28.156
33.709999 -24.252001 28.030001
33.710999 -24.256001 27.906
33.705002 -24.254999 27.775999
33.703999 -24.257 27.650999
33.698002 -24.257 27.521999
33.695999 -24.257999 27.396999
33.693001 -24.26 27.271
33.688999 -24.26 27.145
33.682999 -24.259001 27.017
33.688 -24.266001 26.899
33.675999 -24.261 26.768
33.685001 -24.27 26.652
33.681999 -24.271999 26.528999
33.682999 -24.275 26.409
33.691002 -24.284 26.294001
33.757999 -24.336 26.226
32.653 -23.546 25.135
32.619999 -23.525 24.993
32.618 -23.527 24.877001
32.616001 -23.528999 24.76
32.616001 -23.531 24.645
32.615002 -23.534 24.530001
32.612999 -23.535 24.414
32.611 -23.537001 24.299
32.609001 -23.539 24.183001
32.605999 -23.540001 24.068001
32.605 -23.542 23.954
32.625999 -23.559999 23.856001
32.771999 -23.667999 23.85
32.922001 -23.780001 23.846001
33.070999 -23.891001 23.84
33.187 -23.978001 23.809999
33.373001 -24.115 23.829
33.536999 -24.236 23.832001
33.645 -24.320999 23.68
33.618999 -24.305 23.547001
33.660999 -24.339001 23.462999
33.66 -24.341 23.349001
33.701 -24.372999 23.263
33.730999 -24.398001 23.171
32.615002 -23.603001 21.969
32.659 -23.638 21.889999
32.662998 -23.643999 21.784
32.664001 -23.646999 21.677
32.666 -23.652 21.570999
32.668999 -23.656 21.464001
32.672001 -23.662001 21.358999
32.674 -23.666 21.253
32.679001 -23.673 21.15
32.615002 -23.629 21.002001
32.595001 -23.617001 20.882999
32.727001 -23.716 20.861
32.889 -23.836 20.858
33.049999 -23.955999 20.853001
33.172001 -24.047001 20.823
33.659 -24.424 20.266001
33.687 -24.447001 20.176001
32.617001 -23.687 18.917999
32.665001 -23.725 18.844
32.665001 -23.726999 18.742001
32.665001 -23.73 18.639
32.66 -23.729 18.535
32.659 -23.731001 18.433001
32.658001 -23.733 18.330999
32.655998 -23.733999 18.229
32.652 -23.733999 18.125999
32.564999 -23.674 17.976999
32.533001 -23.653 17.858999
32.636002 -23.731001 17.816
32.828999 -23.874001 17.82
33.014999 -24.011999 17.82
33.105 -24.08 17.767
32.966999 -23.99 17.291
32.980999 -24.003 17.198999
33.904999 -24.695 16.966
32.580002 -23.74 15.913
32.599998 -23.757999 15.826
32.598 -23.757999 15.729
32.596001 -23.76 15.631
32.592999 -23.76 15.533
32.59 -23.761 15.436
32.588001 -23.761999 15.339
32.587002 -23.764 15.242
32.584999 -23.764999 15.145
32.553001 -23.743999 15.035
32.492001 -23.702 14.911
32.551998 -23.747999 14.843
32.758999 -23.902 14.842
32.963001 -24.052999 14.838
33.084999 -24.145 14.796
33.542999 -24.493 14.515
33.543999 -24.496 14.418
33.542999 -24.497999 14.321
33.594002 -24.537001 14.245
35.410999 -25.870001 14.812
35.653 -26.049999 14.811
35.884998 -26.222 14.804
32.512001 -23.77 12.949
32.550999 -23.801001 12.872
32.564999 -23.813999 12.785
32.563 -23.815001 12.692
32.562 -23.816999 12.599
32.561001 -23.818001 12.506
32.560001 -23.82 12.414
32.560001 -23.822001 12.322
32.560001 -23.825001 12.23
32.557999 -23.826 12.137
32.546001 -23.819 12.041
32.439999 -23.745001 11.911
32.480999 -23.777 11.835
32.699001 -23.938999 11.822
32.931999 -24.112 11.814
32.859001 -24.069 11.421
33.494999 -24.539 11.456
33.492001 -24.540001 11.362
33.519001 -24.562 11.278
33.543999 -24.583 11.193
33.813 -24.785 11.096
33.818001 -24.791 11.004
33.826 -24.799 10.913
33.830002 -24.805 10.821
33.839001 -24.813999 10.73
33.842999 -24.822001 10.545
32.488998 -23.834 9.9449997
32.534 -23.870001 9.8699999
32.529999 -23.868999 9.7790003
32.527 -23.868999 9.6890001
32.525002 -23.870001 9.6000004
32.52 -23.868999 9.5089998
32.514999 -23.868 9.4189997
32.512001 -23.867001 9.3290005
32.507 -23.867001 9.2399998
32.504002 -23.865999 9.1499996
32.500999 -23.865999 9.0609999
32.426998 -23.815001 8.9519997
32.410999 -23.805 8.8599997
33.458 -24.589001 8.6020002
33.458 -24.591999 8.5120001
33.456001 -24.591999 8.4209995
33.453999 -24.593 8.3299999
33.495998 -24.625999 8.2510004
32.458 -23.892 6.9510002
32.485001 -23.914 6.8699999
32.48 -23.913 6.7820001
32.477001 -23.913 6.6950002
32.473999 -23.913 6.6079998
32.473 -23.914 6.5209999
32.470001 -23.914 6.434
32.467999 -23.916 6.348
32.466999 -23.917 6.2610002
32.467999 -23.92 6.1750002
32.460999 -23.917 6.0869999
32.333 -23.826 5.9780002
32.331001 -23.826 5.8920002
32.330002 -23.827 5.8060002
32.328999 -23.829 5.7199998
32.327999 -23.830999 5.6339998
32.327 -23.833 5.5479999
33.334 -24.582001 5.4569998
33.358002 -24.601999 5.3730001
33.446999 -24.67 5.2989998
33.453999 -24.712999 3.892
33.375999 -24.663 3.6210001
33.337002 -24.636 3.529
33.335999 -24.638 3.4419999
33.335999 -24.641001 3.355
33.335999 -24.643 3.267
33.335999 -24.645 3.1800001
33.335999 -24.646999 3.0929999
33.334999 -24.649 3.006
33.334 -24.65 2.918
33.330002 -24.65 2.8310001
33.328999 -24.652 2.744
33.327999 -24.653 2.6570001
33.326 -24.653999 2.569
33.325001 -24.655001 2.4820001
33.324001 -24.657 2.395
33.323002 -24.659 2.3080001
33.32 -24.659 2.221
33.317001 -24.659 2.1340001
33.314999 -24.66 2.0469999
33.311001 -24.66 1.96
33.287998 -24.643999 1.8710001
33.313 -24.712 0.048999999
32.741001 -24.290001 -0.037
32.735001 -24.288 -0.123
32.73 -24.289 -0.29300001
32.743999 -23.417 28.540001
32.755001 -23.427999 28.424
32.844002 -23.495001 28.375999
32.994999 -23.606001 28.382
33.138 -23.712 28.379
33.285 -23.82 28.379
33.433998 -23.931 28.381001
33.582001 -24.040001 28.379999
33.727001 -24.146999 28.375999
33.764999 -24.177999 28.282
33.765999 -24.181999 28.157
33.768002 -24.187 28.033001
33.764 -24.188 27.905001
33.764 -24.191 27.780001
33.758999 -24.191 27.652
33.757 -24.193001 27.525999
33.752998 -24.193001 27.399
33.750999 -24.195 27.274
33.748001 -24.195999 27.149
33.744999 -24.200001 26.900999
33.726002 -24.190001 26.764
33.742001 -24.205 26.655001
33.741001 -24.207001 26.533001
33.740002 -24.209999 26.410999
33.747002 -24.218 26.296
33.823002 -24.275999 26.233999
32.714001 -23.486 25.141001
32.674999 -23.461 24.996
32.673 -23.462999 24.879
32.669998 -23.464001 24.761999
32.669998 -23.466999 24.646999
32.668999 -23.469 24.531
32.667 -23.471001 24.416
32.666 -23.473 24.299999
32.662998 -23.474001 24.184999
32.660999 -23.476 24.07
32.658001 -23.476999 23.955
32.68 -23.496 23.858
32.824001 -23.601999 23.849001
32.978001 -23.716 23.848
33.130001 -23.827999 23.844
33.243 -23.913 23.812
33.595001 -24.172001 23.834999
33.716 -24.271999 23.464001
33.716 -24.274 23.35
33.757 -24.306999 23.264999
33.785 -24.330999 23.171
33.782001 -24.330999 23.056
32.669998 -23.539 21.969999
32.713001 -23.573 21.889999
32.715 -23.577 21.784
32.716999 -23.582001 21.677
32.717999 -23.586 21.57
32.720001 -23.59 21.464001
32.723 -23.594999 21.358999
32.727001 -23.601 21.254
32.733002 -23.607 21.15
32.666 -23.562 21.000999
32.646 -23.551001 20.882
32.782001 -23.650999 20.862
32.943001 -23.771 20.858
33.106998 -23.892 20.855
33.235001 -23.987 20.827999
33.062 -23.871 20.400999
33.743999 -24.381001 20.177
32.671001 -23.622 18.917999
32.721001 -23.660999 18.844999
32.717999 -23.662001 18.740999
32.716999 -23.663 18.639
32.716999 -23.666 18.537001
32.716 -23.667999 18.434999
32.713001 -23.669001 18.332001
32.710999 -23.67 18.23
32.709 -23.672001 18.128
32.633999 -23.620001 17.985001
32.59 -23.591 17.861
32.681 -23.659 17.811001
32.869999 -23.799 17.813
33.058998 -23.938 17.813999
33.213001 -24.052999 17.796
32.942001 -23.865 17.35
32.950001 -23.872999 17.254
32.957001 -23.879999 17.158001
32.973 -23.898001 16.966999
32.986 -23.91 16.875
33.001999 -23.924 16.784
33.035999 -23.952 16.702
33.936001 -24.615 16.750999
32.633999 -23.674999 15.914
32.659 -23.695999 15.829
32.657001 -23.697001 15.731
32.653999 -23.698 15.633
32.651001 -23.698 15.535
32.647999 -23.698999 15.438
32.645 -23.698999 15.34
32.644001 -23.701 15.243
32.641998 -23.702 15.147
32.617001 -23.686001 15.039
32.549 -23.639999 14.913
32.596001 -23.676001 14.839
32.798 -23.826 14.835
33.000999 -23.976 14.83
33.141998 -24.080999 14.797
32.567001 -23.705999 12.949
32.605999 -23.737 12.872
32.618999 -23.749001 12.784
32.617001 -23.75 12.691
32.615002 -23.750999 12.598
32.615002 -23.754 12.506
32.615002 -23.756001 12.414
32.612999 -23.757 12.321
32.612999 -23.759001 12.229
32.611 -23.761 12.137
32.597 -23.753 12.04
32.493999 -23.68 11.911
32.542 -23.718 11.837
32.764999 -23.882999 11.826
32.981998 -24.042999 11.812
33.09 -24.124001 11.759
33.549999 -24.469999 11.548
33.549 -24.472 11.455
33.546001 -24.472 11.361
33.577999 -24.497 11.278
33.592999 -24.511 11.19
33.866001 -24.712999 11.187
33.896 -24.737 11.104
33.896 -24.74 11.01
33.900002 -24.746 10.918
33.900002 -24.747 10.824
33.903 -24.752001 10.732
33.898998 -24.754 10.545
32.544998 -23.77 9.9449997
32.588001 -23.805 9.8690004
32.584999 -23.805 9.7790003
32.582001 -23.805 9.6890001
32.578999 -23.805 9.599
32.574001 -23.804001 9.5089998
32.57 -23.802999 9.4189997
32.567001 -23.802999 9.3290005
32.563 -23.802999 9.2390003
32.560001 -23.802999 9.1499996
32.557999 -23.804001 9.0609999
32.473 -23.743999 8.9490004
32.465 -23.74 8.8590002
32.945999 -24.098 8.8120003
33.514 -24.521999 8.6020002
33.514 -24.525 8.5109997
33.512001 -24.525999 8.4200001
33.507999 -24.525 8.3290005
33.556999 -24.563999 8.2510004
32.518002 -23.830999 6.9510002
32.539001 -23.849001 6.869
32.534 -23.848 6.7810001
32.529999 -23.847 6.6939998
32.527 -23.847 6.6069999
32.525002 -23.848 6.52
32.522999 -23.849001 6.4330001
32.521 -23.85 6.3460002
32.52 -23.851 6.2600002
32.521 -23.854 6.1739998
32.500999 -23.841999 6.0840001
32.386002 -23.76 5.9759998
32.384998 -23.761999 5.8909998
32.383999 -23.763 5.8049998
32.382999 -23.764 5.7189999
32.382 -23.766001 5.6329999
32.381001 -23.768 5.5469999
33.398998 -24.521999 5.4569998
33.417 -24.538 5.3720002
33.498001 -24.6 5.2969999
33.497002 -24.601999 5.2090001
33.497002 -24.604 5.1199999
33.495998 -24.605 5.0320001
33.493 -24.606001 4.9429998
33.492001 -24.607 4.855
33.491001 -24.608999 4.7670002
33.490002 -24.611 4.6789999
33.488998 -24.612 4.5910001
33.487999 -24.614 4.5029998
33.487 -24.615999 4.415
33.486 -24.617001 4.3270001
33.487 -24.620001 4.2389998
33.498001 -24.629999 4.1529999
33.498001 -24.632999 4.0650001
33.495998 -24.632999 3.977
33.492001 -24.632999 3.8889999
33.490002 -24.634001 3.8009999
33.488998 -24.636 3.7130001
33.43 -24.594999 3.619
33.393002 -24.57 3.5280001
33.391998 -24.572001 3.4400001
33.391998 -24.573999 3.3529999
33.391998 -24.576 3.266
33.390999 -24.577999 3.1789999
33.390999 -24.58 3.0910001
33.390999 -24.582001 3.0039999
33.389 -24.583 2.9170001
33.387001 -24.584 2.829
33.386002 -24.586 2.7420001
33.382999 -24.586 2.655
33.382 -24.587 2.5680001
33.380001 -24.589001 2.4809999
33.380001 -24.591 2.3940001
33.377998 -24.591999 2.306
33.375999 -24.591999 2.2190001
33.373001 -24.591999 2.132
33.372002 -24.594 2.0450001
33.368999 -24.594999 1.9579999
33.354 -24.584999 1.87
33.337002 -24.622 0.046999998
32.799 -24.226999 -0.039000001
32.789001 -24.222 -0.125
32.789001 -24.224001 -0.20999999
32.782001 -24.226 -0.46599999
32.798 -23.353001 28.542
32.808998 -23.364 28.427
32.901001 -23.433001 28.381001
33.051998 -23.544001 28.386
33.201 -23.653 28.388
33.346001 -23.759001 28.386
33.490002 -23.865 28.382999
33.638 -23.974001 28.382
33.782001 -24.08 28.377001
33.819 -24.110001 28.282
33.820999 -24.115 28.159
33.821999 -24.118999 28.034
33.820999 -24.121 27.908001
33.817001 -24.122 27.780001
33.813 -24.122 27.652
33.813 -24.125999 27.528
33.810001 -24.127001 27.402
33.806 -24.128 27.275
33.801998 -24.128 27.149
33.789001 -24.122 27.016001
33.801998 -24.135 26.903999
33.778999 -24.122 26.764
33.798 -24.138 26.657
33.796001 -24.139999 26.534
33.793999 -24.142 26.410999
33.803001 -24.152 26.298
33.877998 -24.208 26.235001
32.787998 -23.436001 25.159
32.731998 -23.399 24.999001
32.73 -23.400999 24.882
32.728001 -23.403 24.766001
32.727001 -23.405001 24.65
32.724998 -23.407 24.534
32.724998 -23.409 24.42
32.722 -23.41 24.302999
32.717999 -23.410999 24.187
32.716999 -23.413 24.073
32.716 -23.415001 23.958
32.733002 -23.431 23.858
32.872002 -23.533001 23.846001
33.023998 -23.645 23.843
33.18 -23.76 23.841999
33.300999 -23.85 23.815001
33.646 -24.103001 23.833
33.717999 -24.158001 23.768999
33.751999 -24.184999 23.679001
33.765999 -24.201 23.461
33.773998 -24.209999 23.353001
33.811001 -24.239 23.264999
33.839001 -24.261999 23.171
33.838001 -24.264999 23.056999
32.722 -23.473 21.969999
32.764999 -23.507 21.889999
32.769001 -23.513 21.785
32.771999 -23.517 21.677999
32.772999 -23.521999 21.572001
32.775002 -23.525999 21.465
32.778 -23.531 21.360001
32.780998 -23.535999 21.254
32.786999 -23.542999 21.150999
32.721001 -23.497999 21.002001
32.701 -23.487 20.882999
32.839001 -23.589001 20.865
33.006001 -23.712 20.864
33.167999 -23.830999 20.860001
33.167 -23.841 20.433001
33.195999 -23.865999 20.344999
33.188999 -23.863001 20.235001
33.191002 -23.868 20.129999
33.189999 -23.868999 20.024
33.793999 -24.309999 20.174
33.794998 -24.313 20.068001
33.793999 -24.316 19.961
32.727001 -23.559 18.92
32.773998 -23.594999 18.844999
32.771 -23.596001 18.740999
32.77 -23.598 18.639
32.768002 -23.599001 18.535999
32.766998 -23.601 18.434
32.764999 -23.601999 18.330999
32.762001 -23.603001 18.229
32.759998 -23.604 18.125999
32.669998 -23.542 17.976
32.641998 -23.525 17.861
32.747002 -23.603001 17.818001
32.936001 -23.742001 17.82
33.126999 -23.882 17.822001
33.317001 -24.021999 17.822001
33.131001 -23.899 17.32
33.136002 -23.905001 17.223
33.125 -23.9 17.117001
33.123001 -23.900999 17.017
32.662998 -23.59 15.999
32.688999 -23.612 15.915
32.715 -23.632999 15.83
32.712002 -23.632999 15.732
32.709 -23.634001 15.634
32.707001 -23.635 15.536
32.705002 -23.636 15.439
32.701 -23.636 15.341
32.700001 -23.638 15.244
32.698002 -23.639 15.148
32.669998 -23.621 15.039
32.603001 -23.576 14.913
32.653 -23.614 14.84
32.856998 -23.764 14.837
33.066002 -23.917999 14.835
33.238998 -24.045 14.816
33.022999 -23.902 14.242
33.026001 -23.907 14.148
33.025002 -23.909 14.053
33.028999 -23.914 13.959
34.008999 -24.632 14.081
34.005001 -24.632 13.982
34.001999 -24.632 13.884
32.619999 -23.641001 12.948
32.660999 -23.673 12.872
32.673 -23.684 12.784
32.671001 -23.684999 12.691
32.668999 -23.686001 12.598
32.667999 -23.688 12.505
32.667 -23.688999 12.413
32.666 -23.691 12.32
32.666 -23.694 12.228
32.664001 -23.695 12.136
32.653 -23.688999 12.04
32.550999 -23.617001 11.911
32.595001 -23.652 11.836
32.816002 -23.815001 11.825
33.043999 -23.983 11.815
33.608002 -24.402 11.642
33.608002 -24.405001 11.549
33.605 -24.405001 11.454
33.603001 -24.406 11.361
33.632999 -24.43 11.278
33.646 -24.441999 11.189
33.921001 -24.646999 11.093
33.924 -24.652 11.001
33.932999 -24.660999 10.91
33.939999 -24.667999 10.819
33.945999 -24.674999 10.727
33.955002 -24.686001 10.544
32.595001 -23.702999 9.9429998
32.646 -23.742001 9.8690004
32.639999 -23.74 9.7779999
32.636002 -23.74 9.6879997
32.633999 -23.740999 9.599
32.630001 -23.74 9.5089998
32.626999 -23.740999 9.4189997
32.623001 -23.74 9.3290005
32.620998 -23.740999 9.2399998
32.617001 -23.740999 9.1499996
32.615002 -23.740999 9.0609999
32.535999 -23.686001 8.9510002
32.52 -23.677 8.8590002
32.992001 -24.025 8.809
33.570999 -24.457001 8.6009998
33.57 -24.458 8.5100002
33.568001 -24.459 8.4200001
33.564999 -24.459999 8.3290005
33.612 -24.496 8.25
32.571999 -23.766001 6.9499998
32.594002 -23.785 6.868
32.589001 -23.784 6.7800002
32.584999 -23.782 6.6929998
32.582001 -23.783001 6.6059999
32.578999 -23.783001 6.5190001
32.577 -23.784 6.4320002
32.576 -23.785 6.3449998
32.574001 -23.785999 6.2589998
32.574001 -23.789 6.1719999
32.551998 -23.775 6.0819998
32.441002 -23.695999 5.9759998
32.439999 -23.698 5.8899999
32.438999 -23.698999 5.8039999
32.438 -23.701 5.7179999
32.437 -23.702 5.632
32.437 -23.704 5.546
33.455002 -24.455999 5.4559999
33.473999 -24.472 5.3709998
33.553001 -24.532 5.296
33.807999 -24.723 5.158
33.542 -24.552 4.2379999
33.591999 -24.603001 3.717
33.483002 -24.525999 3.6170001
33.446999 -24.502001 3.526
33.446999 -24.504 3.4389999
33.446999 -24.506001 3.352
33.446999 -24.509001 3.2639999
33.445999 -24.51 3.177
33.445999 -24.513 3.0899999
33.445999 -24.514999 3.003
33.444 -24.516001 2.915
33.442001 -24.517 2.8280001
33.441002 -24.518999 2.7409999
33.438999 -24.518999 2.6530001
33.437 -24.52 2.566
33.436001 -24.521999 2.4790001
33.435001 -24.523001 2.392
33.432999 -24.524 2.3050001
33.431 -24.525 2.2179999
33.428001 -24.525999 2.1300001
33.426998 -24.527 2.043
33.424 -24.527 1.956
33.394001 -24.507 1.868
32.842999 -24.156 -0.126
32.842999 -24.158001 -0.212
32.855999 -23.291 28.547001
32.866001 -23.301001 28.431
32.951 -23.365 28.379
33.101002 -23.475 28.382999
33.245998 -23.580999 28.382
33.391998 -23.688 28.381001
33.540001 -23.796 28.379999
33.687 -23.903999 28.379
33.832001 -24.01 28.375
33.877998 -24.046 28.287001
33.877998 -24.049 28.160999
33.877998 -24.052999 28.035999
33.875 -24.054001 27.908001
33.873001 -24.056 27.782
33.870998 -24.058001 27.656
33.867001 -24.058001 27.528
33.863998 -24.059 27.402
33.860001 -24.059999 27.275999
33.859001 -24.062 27.152
33.855999 -24.063999 27.027
33.855999 -24.066999 26.903999
33.830002 -24.052 26.761999
33.849998 -24.069 26.656
33.851002 -24.073 26.535
33.849998 -24.076 26.413
33.859001 -24.084999 26.299
33.933998 -24.142 26.237
32.784 -23.333 25
32.779999 -23.333 24.881001
32.778 -23.334999 24.764
32.777 -23.337 24.649
32.776001 -23.34 24.534
32.773998 -23.341999 24.417999
32.771 -23.343 24.301001
32.771 -23.344999 24.187
32.768002 -23.347 24.072001
32.766998 -23.348 23.958
32.787998 -23.367001 23.860001
32.93 -23.471001 23.85
33.083 -23.583 23.848
33.237 -23.695999 23.844999
33.358002 -23.785 23.818001
33.535 -23.915001 23.83
33.703999 -24.038 23.834999
33.821999 -24.135 23.462
33.827 -24.141001 23.351999
33.868 -24.173 23.267
33.896999 -24.197001 23.173
33.955002 -24.242001 23.1
32.775002 -23.408001 21.969999
32.82 -23.443001 21.892
32.824001 -23.448 21.785999
32.825001 -23.452 21.679001
32.827 -23.457001 21.573
32.830002 -23.461 21.466999
32.833 -23.466999 21.361
32.837002 -23.472 21.256001
32.842999 -23.48 21.153999
32.772999 -23.431999 21.002001
32.755001 -23.422001 20.884001
32.891998 -23.523001 20.865
33.051998 -23.641001 20.860001
33.217999 -23.761999 20.858
33.351002 -23.860001 20.834
33.146 -23.719 20.493
33.165001 -23.735001 20.399
33.166 -23.739 20.294001
33.167 -23.743 20.188999
33.168999 -23.747 20.084
33.164001 -23.746 19.976
33.834 -24.235001 20.059
32.779999 -23.493 18.92
32.831001 -23.532 18.847
32.828999 -23.534 18.743999
32.825001 -23.534 18.639999
32.824001 -23.535999 18.538
32.823002 -23.538 18.436001
32.820999 -23.539 18.333
32.819 -23.541 18.231001
32.816002 -23.541 18.128
32.729 -23.481001 17.98
32.696999 -23.461 17.862
32.794998 -23.533001 17.815001
32.98 -23.67 17.815001
33.174999 -23.812 17.819
33.365002 -23.951 17.819
33.141998 -23.802 17.298
33.144001 -23.806 17.198999
33.134998 -23.802 17.094
33.138 -23.806999 16.996
33.796001 -24.285 17.131001
33.796001 -24.287001 17.030001
33.793999 -24.289 16.927999
33.792 -24.290001 16.826
32.716 -23.525 15.999
32.745998 -23.549 15.916
32.77 -23.569 15.831
32.766998 -23.569 15.733
32.764999 -23.57 15.635
32.762001 -23.570999 15.537
32.759998 -23.572001 15.439
32.757 -23.572001 15.342
32.754002 -23.573 15.244
32.752998 -23.573999 15.148
32.719002 -23.552999 15.037
32.658001 -23.511999 14.914
32.714001 -23.554001 14.843
32.918999 -23.704 14.841
33.118 -23.85 14.834
33.331001 -24.006001 14.833
32.924999 -23.724001 14.271
32.926998 -23.728001 14.177
32.924999 -23.729 14.081
32.921001 -23.728001 13.985
32.937 -23.743 13.897
32.674999 -23.576 12.948
32.716999 -23.608999 12.873
32.727001 -23.618999 12.784
32.724998 -23.620001 12.691
32.723999 -23.621 12.598
32.722 -23.622999 12.505
32.720001 -23.624001 12.412
32.720001 -23.625999 12.32
32.720001 -23.628 12.228
32.716999 -23.629 12.135
32.695 -23.615 12.035
32.605 -23.552999 11.911
32.659 -23.594 11.84
32.889999 -23.763 11.831
33.133999 -23.943001 11.827
33.374001 -24.118 11.819
33.661999 -24.334 11.641
33.661999 -24.336 11.548
33.66 -24.337999 11.454
33.659 -24.339001 11.36
33.691002 -24.365 11.278
33.698002 -24.372999 11.187
33.980999 -24.584999 11
34 -24.601 10.913
34.007 -24.608 10.822
34.009998 -24.614 10.73
34.007999 -24.617001 10.542
32.653 -23.641001 9.9440002
32.699001 -23.676001 9.868
32.694 -23.674999 9.7779999
32.689999 -23.674999 9.6879997
32.687 -23.674999 9.5979996
32.683998 -23.674999 9.5080004
32.681999 -23.676001 9.4180002
32.678001 -23.676001 9.3290005
32.674999 -23.676001 9.2390003
32.672001 -23.676001 9.1499996
32.669998 -23.677 9.0609999
32.580002 -23.614 8.9469995
32.573002 -23.611 8.8579998
33.076 -23.981001 8.816
33.625999 -24.389 8.6000004
33.625 -24.391001 8.5100002
33.624001 -24.392 8.4189997
33.622002 -24.393 8.3280001
33.668999 -24.43 8.25
32.629002 -23.702999 6.9499998
32.648998 -23.719999 6.8670001
32.643002 -23.719 6.7789998
32.639 -23.718 6.6919999
32.636002 -23.718 6.605
32.633999 -23.719 6.5180001
32.632 -23.719 6.4310002
32.630001 -23.719999 6.3439999
32.630001 -23.722 6.2579999
32.629002 -23.724001 6.171
32.604 -23.709 6.0809999
32.495998 -23.632 5.9749999
32.493999 -23.632999 5.888
32.493999 -23.635 5.803
32.493 -23.636999 5.717
32.492001 -23.639 5.631
32.491001 -23.639999 5.5450001
33.512001 -24.389999 5.4549999
33.528999 -24.403999 5.3699999
33.609001 -24.466 5.2940001
33.869999 -24.66 5.158
33.598999 -24.486 4.2360001
33.542999 -24.462 3.6159999
33.504002 -24.436001 3.5250001
33.502998 -24.438 3.437
33.502998 -24.440001 3.3499999
33.502998 -24.441999 3.263
33.504002 -24.445 3.1760001
33.502998 -24.447001 3.0880001
33.502998 -24.448999 3.0009999
33.500999 -24.450001 2.914
33.499001 -24.451 2.8269999
33.498001 -24.452999 2.7390001
33.494999 -24.452999 2.652
33.493999 -24.455 2.5650001
33.493 -24.455999 2.4779999
33.490002 -24.455999 2.3900001
33.490002 -24.458 2.303
33.487999 -24.459 2.2160001
33.485001 -24.459 2.1289999
33.481998 -24.459999 2.0420001
33.48 -24.459999 1.955
33.460999 -24.448999 1.867
31.693001 -23.194 0.37
31.690001 -23.195 0.28799999
31.691 -23.197001 0.205
31.688 -23.198 0.123
31.693001 -23.202999 0.041000001
31.681 -23.197001 -0.041000001
31.683001 -23.200001 -0.124
31.677999 -23.198999 -0.206
32.904999 -23.223 28.545
32.917 -23.235001 28.43
33.004002 -23.299 28.381001
33.158001 -23.410999 28.386999
33.300999 -23.516001 28.384001
33.446999 -23.622 28.382999
33.596001 -23.731001 28.382999
33.744999 -23.84 28.384001
33.889999 -23.945 28.379
33.931 -23.978001 28.287001
33.93 -23.98 28.160999
33.93 -23.983999 28.035
33.93 -23.987 27.909
33.926998 -23.988001 27.782
33.924 -23.99 27.656
33.922001 -23.990999 27.530001
33.919998 -23.993 27.405001
33.917 -23.995001 27.278999
33.915001 -23.996 27.153999
33.911999 -24.000999 26.907
33.907001 -24.000999 26.781
33.910999 -24.006001 26.662001
33.907001 -24.007 26.538
33.905998 -24.01 26.416
33.911999 -24.017 26.299
33.987999 -24.073999 26.237
34.073002 -24.136999 26.181999
32.837002 -23.268 25
32.835999 -23.271 24.885
32.834 -23.271999 24.768
32.833 -23.274 24.652
32.832001 -23.277 24.537001
32.830002 -23.278 24.421
32.827 -23.278999 24.304001
32.825001 -23.281 24.188999
32.826 -23.284 24.076
32.823002 -23.285999 23.961
32.84 -23.301001 23.860001
32.979 -23.402 23.848
33.132999 -23.514999 23.846001
33.285999 -23.625999 23.841999
33.414001 -23.719999 23.82
33.752998 -23.966999 23.833
32.831001 -23.344 21.973
32.873001 -23.378 21.893
32.881001 -23.386 21.790001
32.882 -23.389999 21.681999
32.882999 -23.393 21.575001
32.884998 -23.398001 21.468
32.889999 -23.403999 21.364
32.896 -23.410999 21.261
32.900002 -23.417 21.157
32.834999 -23.372999 21.007999
32.808998 -23.358 20.886
32.945 -23.457001 20.865
33.106998 -23.576 20.861
33.272999 -23.697001 20.858999
33.113998 -23.594999 20.334999
33.109001 -23.594 20.226
33.108002 -23.596001 20.120001
33.112 -23.601999 20.018
33.479 -23.872 19.922001
33.471001 -23.868999 19.812
33.478001 -23.877001 19.711
32.834 -23.427999 18.921
32.883999 -23.466999 18.848
32.882 -23.468 18.743999
32.882 -23.471001 18.642
32.880001 -23.472 18.539
32.877998 -23.474001 18.437
32.875999 -23.474001 18.334
32.873001 -23.475 18.231001
32.869999 -23.476 18.129
32.787998 -23.42 17.983
32.75 -23.396 17.862
32.849998 -23.469999 17.816
33.034 -23.604 17.815001
33.229 -23.746 17.819
33.421001 -23.886 17.82
33.104 -23.667 17.351
33.097 -23.665001 17.247
33.098999 -23.669001 17.148001
33.087002 -23.663 17.042
33.875 -24.232 17.245001
33.932999 -24.275999 17.173
33.898998 -24.254 17.054001
33.896 -24.254999 16.951
33.894001 -24.257 16.85
33.890999 -24.26 16.646
32.797001 -23.482 15.915
32.827 -23.506001 15.832
32.824001 -23.507 15.734
32.820999 -23.507 15.636
32.82 -23.509001 15.539
32.817001 -23.509001 15.441
32.814999 -23.51 15.344
32.813 -23.511 15.247
32.811001 -23.511999 15.15
32.782001 -23.493999 15.041
32.714001 -23.448 14.914
32.755001 -23.48 14.838
32.956001 -23.627001 14.833
33.157001 -23.773001 14.827
33.367001 -23.926001 14.824
33.823002 -24.287001 13.765
32.730999 -23.513 12.949
32.77 -23.544001 12.872
32.785999 -23.558001 12.786
32.783001 -23.556999 12.692
32.782001 -23.559 12.599
32.779999 -23.559999 12.506
32.778 -23.562 12.413
32.776001 -23.563 12.321
32.777 -23.566 12.229
32.776001 -23.568001 12.137
32.771999 -23.566999 12.044
32.662998 -23.490999 11.912
32.700001 -23.52 11.835
32.921001 -23.681999 11.823
33.167 -23.861 11.819
33.411999 -24.040001 11.813
33.716 -24.268999 11.547
33.716999 -24.271 11.454
33.715 -24.273001 11.36
33.742001 -24.295 11.276
33.752998 -24.305 11.187
33.750999 -24.306 11.093
33.75 -24.308001 11
33.748001 -24.309 10.906
33.747002 -24.311001 10.814
33.747002 -24.313 10.721
33.745998 -24.315001 10.628
33.747002 -24.320999 10.444
32.703999 -23.573 9.9420004
32.755001 -23.613001 9.8690004
32.750999 -23.613001 9.7779999
32.747002 -23.612 9.6879997
32.744999 -23.613001 9.5979996
32.743 -23.614 9.5089998
32.740002 -23.614 9.4189997
32.737999 -23.615 9.3299999
32.735001 -23.615 9.2399998
32.731998 -23.615 9.151
32.73 -23.615999 9.0620003
32.653999 -23.563999 8.9519997
32.630001 -23.549 8.8579998
33.686001 -24.325001 8.6000004
33.683998 -24.326 8.5100002
33.681999 -24.327 8.4189997
33.68 -24.327999 8.3280001
33.723 -24.362 8.2480001
33.738998 -24.375999 8.1619997
32.678001 -23.635 6.948
32.703999 -23.656 6.8670001
32.700001 -23.655001 6.7789998
32.695 -23.653999 6.691
32.689999 -23.653 6.6040001
32.688999 -23.655001 6.5170002
32.687 -23.655001 6.4299998
32.686001 -23.657 6.3439999
32.682999 -23.657 6.257
32.683998 -23.66 6.171
32.672001 -23.653 6.0819998
32.550999 -23.568001 5.974
32.549 -23.569 5.888
32.548 -23.570999 5.802
32.547001 -23.572001 5.7160001
32.547001 -23.575001 5.6300001
32.546001 -23.576 5.5450001
33.563999 -24.32 5.4530001
33.582001 -24.336 5.368
33.666 -24.399 5.2930002
33.933998 -24.598 5.158
33.653 -24.417999 4.2350001
33.598 -24.393999 3.615
33.560001 -24.368999 3.5239999
33.560001 -24.372 3.4360001
33.558998 -24.372999 3.349
33.558998 -24.375 3.2609999
33.561001 -24.379 3.174
33.558998 -24.379999 3.0869999
33.557999 -24.382 3
33.556999 -24.384001 2.9119999
33.555 -24.384001 2.825
33.554001 -24.386 2.7379999
33.550999 -24.386 2.6500001
33.549999 -24.388 2.563
33.549999 -24.389999 2.4760001
33.548 -24.391001 2.3889999
33.547001 -24.392 2.302
33.543999 -24.392 2.2149999
33.540001 -24.392 2.1270001
33.537998 -24.393 2.04
33.535999 -24.393999 1.9529999
33.500999 -24.370001 1.864
31.729 -23.118999 0.368
31.728001 -23.120001 0.28600001
31.726 -23.121 0.204
31.725 -23.122999 0.121
31.722 -23.122999 0.039000001
31.723 -23.125 -0.043000001
31.719999 -23.125999 -0.125
31.719999 -23.128 -0.207
31.714001 -23.125999 -0.28999999
31.718 -23.131001 -0.37200001
32.960999 -23.159 28.549
32.973999 -23.172001 28.434999
33.050999 -23.23 28.375999
33.201 -23.337999 28.379
33.344002 -23.441999 28.377001
33.488998 -23.548 28.374001
33.638 -23.656 28.374001
33.789001 -23.764999 28.375999
33.938 -23.872999 28.374001
33.991001 -23.914 28.292
33.991001 -23.917999 28.167
33.987999 -23.917999 28.039
33.987 -23.921 27.912001
33.981998 -23.921 27.784
33.98 -23.923 27.658001
33.978001 -23.924999 27.532
33.976002 -23.927 27.407
33.973999 -23.929001 27.282
33.972 -23.93 27.157
33.965 -23.929001 27.028999
33.969002 -23.934999 26.91
33.952999 -23.927 26.775
33.964001 -23.938 26.660999
33.964001 -23.941 26.540001
33.963001 -23.944 26.417999
33.967999 -23.950001 26.301001
34.043999 -24.007 26.239
34.117001 -24.062 26.174999
32.898998 -23.209 25.009001
32.893002 -23.208 24.889
32.891998 -23.209999 24.771999
32.890999 -23.212999 24.657
32.889999 -23.215 24.541
32.888 -23.216999 24.424999
32.884998 -23.216999 24.309
32.884998 -23.221001 24.195
32.883999 -23.223 24.080999
32.881001 -23.224001 23.965
32.891998 -23.233999 23.860001
33.022999 -23.33 23.841999
33.176998 -23.441999 23.84
33.331001 -23.554001 23.837
33.481998 -23.664 23.830999
33.785 -23.884001 23.816999
33.373001 -23.599001 23.302
33.379002 -23.606001 23.193001
33.380001 -23.608999 23.082001
33.384998 -23.615999 22.974001
33.388 -23.621 22.864
32.883999 -23.280001 21.974001
32.926998 -23.313 21.893999
32.936001 -23.322001 21.791
32.936001 -23.325001 21.683001
32.938999 -23.33 21.577
32.943001 -23.334999 21.472
32.945999 -23.34 21.367001
32.951 -23.347 21.263
32.957001 -23.354 21.159
32.900002 -23.316 21.016001
32.862 -23.292999 20.886
32.987999 -23.384001 20.858999
33.153 -23.504 20.857
33.318001 -23.624001 20.854
33.472 -23.736 20.843
33.247002 -23.584999 20.384001
33.646999 -23.882999 20.096001
33.627998 -23.872999 19.979
33.618999 -23.868999 19.868
33.625999 -23.877001 19.766001
32.887001 -23.363001 18.921
32.939999 -23.403 18.85
32.941002 -23.407 18.747999
32.939999 -23.408001 18.645
32.937 -23.409 18.542
32.935001 -23.410999 18.438999
32.931999 -23.410999 18.336
32.93 -23.412001 18.233999
32.926998 -23.413 18.131001
32.862999 -23.370001 17.995001
32.807999 -23.334 17.865
32.886002 -23.392 17.806999
33.073002 -23.527 17.806999
33.268002 -23.669001 17.811001
33.462002 -23.809999 17.813
33.265999 -23.677999 17.407
33.865002 -24.110001 17.517
33.935001 -24.167999 17.247
33.991001 -24.209999 17.174
33.973 -24.201 17.063999
33.980999 -24.209 16.966
33.974998 -24.207001 16.862
32.851002 -23.417 15.915
32.882999 -23.441999 15.834
32.879002 -23.441999 15.735
32.877998 -23.444 15.638
32.875999 -23.445 15.54
32.874001 -23.445999 15.443
32.872002 -23.447001 15.346
32.869999 -23.448 15.249
32.867001 -23.448999 15.151
32.84 -23.431999 15.043
32.768002 -23.382999 14.915
32.810001 -23.416 14.838
33.012001 -23.563 14.834
33.217999 -23.712 14.83
33.426998 -23.864 14.827
33.061001 -23.611 14.379
33.035999 -23.594999 14.273
33.035 -23.597 14.177
33.037998 -23.601999 14.084
33.051998 -23.614 13.995
33.050999 -23.615999 13.9
33.879002 -24.219999 13.765
32.784 -23.447001 12.949
32.825001 -23.479 12.872
32.841 -23.493 12.786
32.84 -23.495001 12.693
32.838001 -23.496 12.6
32.835999 -23.497 12.507
32.834999 -23.499001 12.414
32.834999 -23.500999 12.322
32.834999 -23.504 12.23
32.833 -23.504999 12.138
32.827999 -23.504 12.044
32.717999 -23.427 11.913
32.75 -23.452999 11.833
32.970001 -23.613001 11.821
33.217999 -23.792 11.817
33.463001 -23.971001 11.812
33.171001 -23.771 11.341
33.837002 -24.263 11.01
33.837002 -24.266001 10.917
33.835999 -24.267 10.823
33.832001 -24.267 10.73
33.828999 -24.267 10.636
32.758999 -23.51 9.9420004
32.807999 -23.547001 9.868
32.806 -23.548 9.7779999
32.803001 -23.548 9.6879997
32.799999 -23.549 9.5979996
32.797001 -23.549 9.5080004
32.794998 -23.549 9.4189997
32.792 -23.549999 9.3290005
32.791 -23.551001 9.2399998
32.787998 -23.552 9.151
32.785 -23.552 9.0609999
32.696999 -23.490999 8.9490004
32.683998 -23.483999 8.8570004
33.743999 -24.26 8.6000004
33.742001 -24.261 8.5089998
33.738998 -24.261999 8.4180002
33.736 -24.261 8.3269997
33.783001 -24.298 8.2489996
33.791 -24.306 8.1599998
33.790001 -24.308001 8.0699997
33.786999 -24.308001 7.9790001
33.785 -24.309 7.8889999
33.785 -24.311001 7.7989998
33.783001 -24.312 7.7080002
33.780998 -24.313 7.618
33.777 -24.318001 7.348
32.736 -23.573 6.948
32.757999 -23.591 6.8660002
32.751999 -23.589001 6.7779999
32.748001 -23.587999 6.6900001
32.743999 -23.587999 6.6030002
32.743 -23.589001 6.5159998
32.741001 -23.59 6.4289999
32.738998 -23.591 6.342
32.737999 -23.591999 6.256
32.737999 -23.594999 6.1700001
32.720001 -23.584 6.0799999
32.604 -23.503 5.973
32.603001 -23.504 5.8870001
32.601002 -23.506001 5.8010001
32.602001 -23.507999 5.7150002
32.599998 -23.509001 5.6290002
32.598999 -23.511 5.5430002
33.623001 -24.257 5.4530001
33.645 -24.275 5.368
33.722 -24.332001 5.2919998
33.709999 -24.351999 4.2340002
33.653999 -24.327999 3.6140001
33.613998 -24.302 3.5220001
33.613998 -24.304001 3.4349999
33.615002 -24.306999 3.3469999
33.615002 -24.309 3.26
33.615002 -24.311001 3.1730001
33.613998 -24.313 3.085
33.613998 -24.315001 2.9979999
33.612 -24.316 2.911
33.611 -24.318001 2.8239999
33.609001 -24.318001 2.7360001
33.608002 -24.32 2.6489999
33.605999 -24.320999 2.562
33.605 -24.323 2.4749999
33.602001 -24.323 2.3870001
33.601002 -24.323999 2.3
33.598999 -24.325001 2.2130001
33.596001 -24.325001 2.1259999
33.595001 -24.327 2.039
33.591999 -24.327 1.952
33.551998 -24.301001 1.862
31.778999 -23.054001 0.366
31.778 -23.055 0.28400001
31.775999 -23.056 0.20200001
31.775 -23.056999 0.12
31.774 -23.059 0.037
31.771 -23.059 -0.045000002
31.768999 -23.059999 -0.127
31.766001 -23.059999 -0.20900001
31.766001 -23.062 -0.29100001
31.764999 -23.063 -0.37400001
31.763 -23.063999 -0.456
33.014 -23.094999 28.551001
33.027 -23.107 28.437
33.101002 -23.162001 28.375
33.252998 -23.271999 28.379999
33.396999 -23.375999 28.377001
33.541 -23.48 28.374001
33.688999 -23.587 28.374001
33.84 -23.695999 28.375
33.991001 -23.805 28.375
34.044998 -23.846001 28.294001
34.042999 -23.848 28.166
34.042 -23.851 28.040001
34.039001 -23.851999 27.912001
34.039001 -23.855 27.787001
34.035 -23.856001 27.659
34.032001 -23.857 27.533001
34.030998 -23.860001 27.409
34.028 -23.861 27.282
34.027 -23.864 27.159
34.026001 -23.868999 26.912001
34.018002 -23.867001 26.784
34.019001 -23.871 26.663
34.021999 -23.875999 26.544001
34.021999 -23.879 26.423
34.023998 -23.884001 26.302999
34.101002 -23.941 26.242001
34.102001 -23.945 26.122
34.105 -23.951 26.004999
32.949001 -23.142 25.007
32.946999 -23.143999 24.889999
32.945 -23.145 24.774
32.944 -23.146999 24.657
32.943001 -23.15 24.542
32.942001 -23.152 24.427
32.939999 -23.153999 24.311001
32.937 -23.155001 24.195
32.933998 -23.156 24.079
32.933998 -23.158001 23.966
32.945 -23.169001 23.861
33.077 -23.266001 23.844
33.234001 -23.379 23.843
33.388 -23.49 23.84
33.535 -23.597 23.830999
33.849998 -23.823999 23.825001
33.352001 -23.48 23.25
33.355999 -23.486 23.141001
34.029999 -23.969 23.267
34.058998 -23.993 23.174
32.937 -23.214001 21.974001
32.983002 -23.249001 21.896
32.991001 -23.257999 21.792999
32.991001 -23.261 21.684999
32.992001 -23.264 21.577999
32.997002 -23.27 21.473
33 -23.275 21.368
33.005001 -23.282 21.264
33.011002 -23.289 21.160999
32.953999 -23.252001 21.017
32.917 -23.228001 20.886999
33.036999 -23.316 20.857
33.202999 -23.436001 20.855
33.368 -23.555 20.851999
33.521999 -23.666 20.84
33.275002 -23.500999 20.368999
33.367001 -23.568001 20.319
32.941002 -23.298 18.922001
32.993999 -23.337999 18.85
32.998001 -23.343 18.75
32.994999 -23.344 18.646999
32.993 -23.346001 18.544001
32.990002 -23.346001 18.440001
32.987 -23.347 18.337
32.984001 -23.348 18.235001
32.981998 -23.349001 18.132
32.917 -23.305 17.995001
32.862 -23.268999 17.865999
32.938999 -23.327 17.806999
33.125999 -23.461 17.806999
33.319 -23.601 17.809999
33.513 -23.740999 17.812
33.922001 -24.049999 17.313999
33.985001 -24.097 17.245001
34.016998 -24.122999 17.16
34.023998 -24.129999 17.062
34.028999 -24.136999 16.962999
34.040001 -24.146999 16.868
34.037998 -24.150999 16.665001
32.903999 -23.351999 15.915
32.938999 -23.379 15.835
32.936001 -23.379 15.737
32.935001 -23.381001 15.64
32.932999 -23.382 15.542
32.93 -23.382999 15.444
32.929001 -23.384001 15.347
32.926998 -23.386 15.25
32.924 -23.386 15.153
32.901001 -23.372 15.046
32.825001 -23.320999 14.916
32.859001 -23.348 14.837
33.061001 -23.493 14.832
33.272999 -23.646 14.83
33.483002 -23.799 14.827
33.109001 -23.548 14.091
34.126999 -24.285 14.037
34.139 -24.296 13.945
34.127998 -24.291 13.844
32.84 -23.384001 12.95
32.879002 -23.414 12.872
32.898998 -23.431 12.787
32.896 -23.431 12.694
32.895 -23.433001 12.601
32.893002 -23.434 12.508
32.891998 -23.436001 12.415
32.890999 -23.437 12.323
32.889999 -23.438999 12.231
32.889999 -23.441 12.139
32.884998 -23.440001 12.045
32.772999 -23.363001 11.913
32.805 -23.389 11.833
33.030998 -23.552 11.823
33.277 -23.73 11.819
33.522999 -23.908001 11.813
33.164001 -23.667999 11.046
33.159 -23.667999 10.953
33.928001 -24.222 11.021
33.923 -24.219999 10.926
33.924 -24.224001 10.834
33.919998 -24.223 10.739
